3026,3026,3041,3041,3041,3055,3055,3055,3071,3071,3071,3071,3071,3071,3071,3071,3071,3086,3086,3086,3086,3086,3086,3086,3086,3086,3086,3086,3086,3071,3071,3071,3055,3055,3041,3026,3026,3011,3011,2982,2968,2968,2940,2912,2912,2885,2885,2845,2807,2807,2781,2757,2757,2732,2732,2720,2720,2720,2720,2720,2732,2732,2732,2732,2745,2757,2757,2769,2769,2769,2757,2757,2757,2757,2757,2745,2745,2745,2745,2745,2745,2757,2757,2757,2757,2757,2757,2757,2757,2757,2757,2757,2757,2745,2745,2745,2732,2720,2720,2709,2709,2709,2697,2697,2685,2685,2685,2685,2685,2685,2685,2685,2685,2685,2685,2685,2697,2697,2697,2709,2720,2720,2732,2732,2745,2757,2757,2769,2794,2794,2807,2807,2807,2819,2819,2819,2819,2819,2819,2819,2819,2819,2819,2807,2807,2807,2807,2807,2807,0,0,0,0,0,0,0,0,0,0,0,0,0,0,0,0,0,0,0,0,0,0,0,0,0,0,0,0,0,0,0,0,0,1162,1162,1162,0,1166,1166,1168,1168,1168,1168,1168,1166,1166,1166,1168,1166,1166,1166,1164,1164,1164,1162,1162,1159,1159,1159,1159,1157,1157,1157,1157,1157,1155,1155,1155,1155,1155,1155,1155,1157,1157,1157,1157,1157,1157,1157,1157,1159,1159,1159,1162,1162,1162,1162,1164,1166,1166,1170,1173,1173,1177,1181,1181,1186,1186,1191,1193,1193,1197,1200,1200,1202,1204,1204,1211,1207,1204,1204,1204,1204,1204,1202,1202,1202,1202,1204,1204,1204,1207,1207,1209,0,1216,1216,1216,1216,0,1214,1214,1214,1214,1214,1214,1211,1211,1209,1204,1204,1204,1204,1204,1202,1202,1200,1200,1200,1200,1197,1197,1195,1195,1195,1195,1195,1195,1195,1195,1193,1193,1193,1193,1193,1191,1191,1191,1188,1188,1188,1186,1186,1184,1184,1184,1184,1184,1181,1181,1181,1179,1179,1179,1177,1177,1177,1175,1175,1175,1173,1173,1170,1170,1170,1168,1168,1166,1166,1166,1164,1162,1162,1159,1159,1159,1157,1157,1155,1153,1153,1151,1151,1149,1147,1147,1144,1144,1142,1138,1138,1136,1134,1134,1132,1132,1130,1126,1126,1124,1122,1122,1122,1122,1122,1120,1120,1120,1118,1118,1118,1118,1118,1118,1118,1116,1116,1116,1116,1116,1114,1114,1114,1112,1110,1110,1108,1108,1108,1110,1110,1110,1108,1108,1108,1108,1108,1106,1106,1106,1106,1108,1106,1106,1108,1108,1108,1108,1110,1110,1110,1112,1114,1114,1114,1114,1114,1114,1112,1110,1110,1108,1108,1106,1104,1104,1081,1081,1081,1081,1081,1079,1079,1079,1077,1077,1077,1077,1077,1077,1077,1077,1077,1077,1077,1079,1081,1081,1081,1081,1081,1082,1082,1081,1081,1081,1082,1082,1081,1081,1081,1079,1079,1075,1073,1073,1069,1069,1068,1062,1062,1058,1053,1053,1050,1050,1046,1042,1042,1037,1037,1037,0,0,0,0,0,0,0,0,0,0,0,0,0,0,0,0,0,0,1473,1473,1473,1473,1473,1473,1473,1473,1477,1477,1477,1477,1477,1477,1477,1477,1477,1480,1480,1480,1480,1480,1480,1477,1477,1477,1477,1477,1477,1473,1473,1473,1473,1473,1473,1473,1473,1473,1477,1477,1480,1480,1480,1484,1487,1487,1491,1491,0,0,0,0,0,0,1520,1520,1520,1528,1528,1535,1539,1539,1539,1543,1543,1543,1543,1551,1551,1551,1555,1570,1570,1582,1595,1595,1611,1611,1624,1641,1641,1650,1663,1663,1672,1681,1681,1690,1690,1699,1704,1695,1695,1695,1695,1695,0,0,0,0,0,0,0,2968,2968,2968,2954,2954,2912,2872,2872,2832,2832,2794,2781,2781,2757,2757,2745,2732,2732
3026,3026,3041,3041,3041,3055,3071,3071,3071,3071,3086,3086,3086,3086,3101,3101,3101,3101,3101,3101,3101,3101,3101,3101,3101,3101,3101,3086,3086,3086,3086,3071,3055,3055,3041,3026,3026,3011,3011,2982,2968,2968,2940,2912,2912,2885,2885,2845,2807,2807,2781,2757,2757,2732,2732,2720,2720,2720,2720,2720,2732,2732,2732,2732,2745,2757,2757,2769,2769,2769,2757,2757,2757,2757,2757,2745,2745,2745,2745,2745,2745,2757,2757,2757,2757,2757,2757,2757,2757,2757,2757,2757,2757,2745,2745,2745,2732,2720,2720,2709,2709,2709,2697,2697,2685,2685,2685,2685,2685,2685,2685,2685,2685,2685,2685,2685,2697,2697,2697,2709,2720,2720,2732,2732,2745,2757,2757,2769,2794,2794,2807,2807,2807,2819,2819,2819,2819,2819,2819,2819,2819,2819,2819,2807,2807,2807,2807,2807,2807,0,0,0,0,0,0,0,0,0,0,0,0,0,0,0,0,0,0,0,0,0,0,0,0,0,0,0,0,0,0,1159,1159,1159,1162,1162,1162,1162,1162,1164,1166,1166,1168,1168,1168,1168,1168,1168,1168,1168,1168,1168,1166,1164,1164,1164,1164,1162,1159,1159,1159,1157,1157,1157,1157,1155,1155,1155,1155,1155,1155,1155,1155,1155,1155,1155,1155,1155,1155,1155,1157,1157,1157,1159,1159,1159,1162,1162,1162,1166,1166,1166,1168,1168,1170,1170,1177,1181,1181,1184,1186,1186,1188,1193,1193,1195,1197,1197,1200,1200,1200,1200,1200,1202,1202,1202,1204,1207,1207,1207,1207,1207,1209,1209,1209,1214,1214,1216,1216,1216,1216,1214,1214,1214,1214,1214,1214,1211,1211,1209,1204,1204,1204,1204,1204,1202,1202,1200,1200,1200,1200,1197,1197,1195,1195,1195,1195,1195,1195,1195,1195,1193,1193,1193,1191,1191,1191,1191,1191,1188,1188,1188,1186,1186,1184,1184,1184,1181,1181,1181,1181,1181,1179,1179,1179,1177,1177,1177,1175,1175,1175,1173,1173,1170,1170,1170,1168,1168,1166,1166,1166,1164,1162,1162,1159,1159,1159,1157,1157,1155,1153,1153,1151,1151,1149,1147,1147,1144,1144,1142,1138,1138,1136,1134,1134,1132,1132,1130,1126,1126,1124,1122,1122,1122,1122,1120,1120,1120,1118,1118,1118,1118,1118,1116,1116,1116,1114,1114,1114,1112,1112,1112,1110,1110,1110,1110,1110,1108,1108,1106,1106,1106,1104,1102,1102,1100,1100,1098,1096,1096,1096,1094,1094,1094,1094,1092,1092,1092,1090,1090,1090,1088,1088,1088,1088,1088,1086,1084,1084,1084,1084,1084,1082,1082,1082,1081,1081,1081,1081,1081,1081,1081,1079,1079,1079,1077,1077,1077,1077,1077,1077,1077,1077,1077,1077,1077,1079,1081,1081,1081,1081,1081,1082,1082,1081,1081,1081,1082,1082,1081,1081,1081,1079,1079,1075,1073,1073,1069,1069,1068,1062,1062,1058,1053,1053,1050,1050,1046,1042,1042,1037,1037,1037,0,0,0,0,0,0,0,0,0,0,0,0,0,0,0,0,0,0,1473,1473,1473,1473,1473,1473,1473,1473,1477,1477,1477,1477,1477,1477,1477,1477,1477,1480,1480,1480,1480,1480,1480,1477,1477,1477,1477,1477,1477,1473,1473,1473,1473,1473,1473,1473,1477,1477,1477,1477,1480,1480,1480,1484,1487,1487,1491,1491,0,0,0,0,0,0,0,0,0,0,0,0,0,1543,1543,0,0,0,0,0,0,0,0,0,0,0,0,0,0,0,0,0,1654,1654,0,0,0,0,0,1699,1699,1699,0,1695,1695,0,0,0,0,0,0,0,2898,2885,2885,2885,2885,2885,2872,2872,2858,2832,2832,2794,2794,2794,2781,2781,2769,2757,2757,2745,2745
3026,3026,3026,3041,3041,3055,3055,3055,3071,3071,3086,3086,3086,3086,3101,3101,3101,3101,3101,3101,3101,3101,3101,3101,3101,3101,3101,3086,3086,3071,3071,3055,3041,3041,3026,3011,3011,2996,2996,2968,2954,2954,2926,2898,2898,2872,2872,2832,2807,2807,2769,2757,2757,2732,2732,2720,2720,2720,2720,2720,2732,2732,2732,2732,2732,2745,2745,2757,2757,2757,2745,2745,2745,2745,2732,2732,2732,2732,2732,2732,2732,2732,2732,2745,2745,2732,2732,2732,2732,2732,2732,2732,2732,2732,2720,2720,2720,2709,2709,2697,2697,2697,2685,2685,2674,2674,2674,2674,2662,2662,2662,2662,2662,2674,2674,2674,2685,2685,2685,2697,2709,2709,2709,2709,2732,2732,2732,2745,2757,2757,2781,2781,2781,2781,2781,2781,2781,2781,2781,2781,2781,2781,2794,2781,2781,2769,2769,2794,2794,0,0,0,0,0,0,0,0,0,0,0,0,0,0,0,0,0,0,0,0,0,0,0,0,0,0,0,0,0,0,1159,1159,1159,1162,1162,1162,1162,1162,1164,1166,1166,1168,1168,1168,1168,1170,1170,1170,1168,1168,1168,1168,1164,1164,1164,1164,1162,1162,1162,1159,1157,1157,1157,1157,1155,1155,1155,1155,1155,1155,1155,1155,1155,1155,1155,1155,1155,1155,1155,1157,1157,1157,1159,1159,1159,1162,1162,1162,1166,1166,1166,1168,1168,1170,1170,1177,1181,1181,1184,1186,1186,1188,1193,1193,1195,1197,1197,1200,1200,1200,1200,1200,1202,1202,1202,1204,1207,1207,1207,1207,1209,1209,1209,1211,1214,1214,1216,1216,1216,1216,1214,1214,1216,1216,1214,1214,1214,1214,1211,1209,1209,1209,1207,1207,1202,1202,1202,1202,1202,1202,1200,1200,1200,1200,1197,1197,1197,1195,1195,1195,1195,1195,1193,1191,1191,1191,1191,1191,1188,1188,1188,1186,1186,1184,1184,1184,1181,1181,1181,1181,1181,1179,1179,1179,1179,1179,1177,1177,1177,1175,1173,1173,1173,1170,1170,1170,1170,1168,1168,1168,1168,1166,1166,1164,1164,1164,1162,1162,1159,1157,1157,1155,1155,1153,1151,1151,1149,1149,1144,1140,1140,1138,1136,1136,1132,1132,1130,1128,1128,1126,1122,1122,1120,1120,1120,1118,1118,1118,1116,1116,1116,1116,1114,1114,1114,1114,1112,1112,1112,1112,1110,1110,1110,1108,1108,1108,1106,1106,1104,1104,1104,1102,1100,1100,1098,1098,1096,1094,1094,1094,1092,1092,1092,1092,1090,1090,1092,1090,1090,1090,1088,1088,1088,1084,1084,1082,1082,1082,1081,1081,1079,1075,1075,1075,1075,1075,1073,1073,1071,1071,1071,1069,1068,1068,1068,1068,1068,1068,1068,1068,1069,1069,1069,1071,1071,1073,1075,1075,1077,1079,1079,1079,1079,1079,1079,1079,1079,1079,1079,1077,1077,1075,1075,1071,1071,1071,1068,1068,1064,1058,1058,1055,1050,1050,1046,1046,1044,1039,1039,1036,1036,1030,1030,0,1022,1022,1017,1012,1012,1010,1009,1009,1007,1007,1005,1004,1004,1004,1002,1002,1002,1473,1473,1473,1473,1473,1473,1473,1477,1477,1477,1477,1477,1477,1477,1477,1477,1480,1480,1477,1477,1477,1477,1477,1477,1477,1477,1477,1477,1473,1473,1473,1473,1473,1473,1473,1477,1477,1477,1477,1480,1480,1480,1484,1487,1487,1491,1491,0,0,0,0,0,0,0,0,0,0,0,0,0,1543,1543,0,0,0,0,0,0,0,0,0,0,0,0,0,0,0,0,0,1654,1654,0,0,0,0,0,1699,1699,1699,0,0,0,0,0,0,0,0,0,0,2898,2885,2885,2885,2885,2885,2872,2872,2858,2832,2832,2794,2794,2794,2781,2781,2769,2769,2769,2769,2769
3026,3026,3026,3041,3041,3055,3055,3055,3071,3071,3086,3086,3086,3101,3117,3117,3117,3117,3117,3117,3117,3117,3117,3117,3101,3101,3101,3101,3086,3071,3071,3055,3041,3041,3026,3011,3011,2982,2982,2954,2940,2940,2912,2885,2885,2872,2872,2832,2807,2807,2769,2769,2757,2732,2732,2720,2720,2720,2720,2720,2720,2720,2732,2732,2732,2745,2745,2745,2745,2745,2732,2732,2732,2732,2720,2720,2720,2720,2720,2720,2720,2720,2720,2720,2720,2720,2720,2720,2720,2720,2720,2720,2720,2720,2709,2709,2697,2697,2697,2685,2685,2674,2674,2674,2674,2662,2662,2662,2651,2651,2651,2662,2662,2662,2662,2662,2674,2674,2674,2674,2674,2685,2697,2697,2709,2720,2720,2732,2745,2745,2757,2757,2757,2757,2757,2769,2769,2769,2769,2769,2769,2769,2769,2781,2781,2769,2769,2781,2781,0,0,0,0,0,0,0,0,0,0,0,0,0,0,0,0,0,0,0,0,0,0,0,0,0,0,0,0,0,1155,1155,1159,1159,1159,1159,1159,1162,1162,1164,1166,1166,1166,1168,1168,1168,1168,1168,1168,1168,1168,1168,1168,1164,1164,1164,1164,1162,1162,1162,1159,1157,1157,1155,1155,1155,1155,1155,1155,1155,1155,1155,1155,1155,1155,1155,1155,1155,1155,1155,1157,1157,1157,1157,1157,1159,1159,1159,1162,1164,1164,1164,1166,1166,1170,1170,1173,1175,1175,1175,1177,1177,1179,1181,1181,1184,1184,1188,1191,1191,1191,1193,1193,1195,1200,1200,1202,1202,1207,1207,1207,1209,1209,1209,1211,1214,1214,1216,1216,1216,1216,1214,1214,1216,1216,1214,1214,1214,1214,1211,1209,1209,1209,1207,1207,1202,1202,1202,1202,1202,1202,1200,1200,1200,1200,1197,1197,1197,1195,1195,1195,1195,1195,1193,1191,1191,1191,1188,1188,1188,1188,1188,1186,1186,1184,1181,1181,1181,1181,1181,1181,1181,1179,1179,1179,1179,1179,1179,1177,1177,1175,1175,1175,1173,1173,1173,1173,1173,1170,1170,1170,1168,1168,1168,1166,1166,1166,1164,1164,1162,1159,1159,1159,1159,1155,1153,1153,1151,1151,1147,1144,1144,1140,1138,1138,1134,1134,1130,1128,1128,1126,1122,1122,1120,1120,1120,1118,1118,1118,1116,1116,1116,1116,1114,1114,1114,1114,1112,1112,1112,1112,1110,1110,1110,1108,1108,1108,1106,1106,1104,1104,1104,1102,1100,1100,1098,1098,1096,1094,1094,1094,1092,1092,1092,1092,1090,1090,1092,1092,1090,1090,1088,1088,1088,1084,1084,1082,1082,1082,1081,1081,1079,1075,1075,1075,1075,1075,1073,1073,1071,1071,1071,1069,1068,1068,1068,1068,1068,1068,1068,1068,1069,1069,1069,1071,1071,1073,1075,1075,1077,1079,1079,1079,1079,1079,1079,1079,1079,1079,1079,1077,1077,1075,1075,1071,1071,1071,1068,1068,1064,1058,1058,1055,1050,1050,1046,1046,1044,1039,1039,1032,1032,1029,1025,1025,1020,1020,1015,1012,1012,1009,1007,1007,1005,1005,1005,1004,1004,1002,1002,1002,1002,1004,1002,1002,1002,999,999,0,0,0,994,992,992,991,991,0,0,0,988,986,986,985,985,985,1477,1477,1477,1477,1477,1477,1477,1473,1473,1473,1473,1477,1477,1477,1477,1477,1480,1480,1480,1484,1487,1487,1491,1491,0,0,0,0,0,0,0,0,0,0,0,0,0,0,0,0,0,0,0,0,0,0,0,0,0,0,0,0,0,0,0,0,0,0,0,0,0,0,0,0,0,0,0,0,0,0,0,0,0,0,2832,2832,2832,2819,2819,2819,2819,2819,2832,2832,2819,2807,2807,2794,2794,2781,2781,2781,2769,2769,2769,2769,2769
2996,2996,3011,3026,3026,3041,3041,3055,3071,3071,3086,3086,3086,3101,3117,3117,3117,3117,3117,3117,3117,3117,3117,3117,3101,3101,3101,3101,3086,3071,3071,3055,3041,3041,3026,2996,2996,2982,2982,2954,2940,2940,2912,2885,2885,2872,2872,2832,2807,2807,2781,2781,2757,2732,2732,2720,2720,2720,2720,2720,2720,2720,2732,2732,2732,2745,2745,2745,2745,2745,2732,2732,2732,2732,2720,2720,2720,2720,2720,2720,2720,2720,2720,2720,2720,2720,2720,2720,2720,2720,2720,2720,2720,2720,2709,2709,2697,2697,2697,2685,2685,2674,2674,2674,2674,2662,2662,2662,2651,2651,2651,2662,2662,2662,2662,2662,2674,2674,2674,2674,2674,2685,2697,2697,2709,2720,2720,2732,2745,2745,2757,2757,2757,2757,2757,2769,2769,2769,2769,2769,2769,2769,2769,2781,2781,2769,2769,2781,2781,0,0,0,0,0,0,0,0,0,0,0,0,0,0,0,0,0,0,0,0,0,0,0,0,0,0,0,0,0,1155,1155,1159,1159,1159,1159,1159,1162,1162,1164,1166,1166,1166,1168,1168,1168,1168,1168,1168,1168,1168,1168,1168,1166,1166,1166,1166,1162,1162,1162,1159,1157,1157,1155,1155,1155,1155,1155,1155,1155,1155,1155,1155,1155,1153,1153,1153,1155,1155,1155,1155,1157,1157,1157,1157,1159,1159,1159,1162,1164,1164,1164,1166,1166,1166,1166,1168,1168,1168,1168,1168,1168,1170,1170,1170,1170,1170,1173,1177,1177,1181,1186,1186,1191,1195,1195,1200,1200,1207,1209,1209,1211,1211,1211,1214,1216,1216,1219,1219,1219,1219,1219,1216,1216,1216,1214,1214,1214,1214,1214,1209,1209,1209,1209,1209,1207,1207,1207,1204,1204,1204,1202,1202,1202,1202,1200,1197,1197,1197,1195,1195,1195,1195,1193,1191,1191,1191,1188,1188,1188,1188,1188,1186,1186,1184,1181,1181,1181,1181,1181,1181,1181,1179,1179,1179,1179,1179,1179,1177,1177,1175,1175,1175,1173,1173,1173,1173,1173,1170,1170,1170,1168,1168,1168,1166,1166,1166,1164,1164,1162,1159,1159,1159,1159,1155,1153,1153,1151,1151,1147,1144,1144,1140,1138,1138,1134,1134,1130,1128,1128,1126,1122,1122,1120,1120,1120,1118,1118,1116,1116,1116,1114,1114,1114,1112,1112,1112,1110,1110,1110,1110,1110,1108,1108,1106,1106,1106,1104,1104,1102,1102,1102,1100,1098,1098,1096,1096,1094,1094,1094,1092,1092,1092,1090,1090,1090,1090,1090,1090,1090,1090,1088,1088,1086,1084,1084,1082,1081,1081,1077,1077,1075,1073,1073,1071,1071,1071,1069,1069,1068,1068,1068,1066,1066,1066,1064,1064,1064,1064,1064,1064,1064,1066,1066,1068,1068,1068,1069,1069,1071,1073,1073,1073,1073,1075,1075,1075,1075,1075,1075,1075,1071,1071,1071,1069,1066,1066,1064,1064,1060,1057,1057,1053,1048,1048,1044,1044,1041,1036,1036,1032,1032,1029,1025,1025,1020,1020,1015,1012,1012,1009,1007,1007,1005,1005,1005,1004,1004,1002,1002,1002,1002,1004,1002,1002,1002,999,999,0,0,0,994,992,992,991,991,0,0,0,988,986,986,985,985,985,0,0,0,0,0,1477,1477,1477,1473,1473,1473,1477,1477,1477,1480,1480,1480,1480,1480,1484,1487,1487,1495,1495,0,0,0,0,0,0,0,0,0,0,0,0,0,0,0,0,0,0,0,0,0,0,0,0,0,0,0,0,0,0,0,0,0,0,0,0,0,0,0,0,0,0,0,0,0,0,0,0,0,0,2832,2832,2832,2819,2819,2819,2819,2819,2832,2832,2819,2807,2807,2794,2794,2781,2781,2794,2781,2781,2781,2769,2769
2982,2982,2982,3011,3011,3026,3026,3055,3071,3071,3086,3101,3101,3117,3117,3117,3133,3133,3133,3133,3133,3133,3133,3117,3117,3117,3101,3101,3086,3071,3071,3055,3041,3041,3011,2996,2996,2968,2968,2954,2926,2926,2898,2885,2885,2845,2845,2819,2807,2807,2769,2769,2745,2732,2732,2720,2720,2720,2720,2720,2720,2720,2720,2720,2720,2732,2732,2720,2720,2720,2720,2720,2709,2709,2709,2709,2709,2709,2709,2709,2709,2709,2709,2709,2709,2709,2709,2709,2709,2709,2709,2709,2709,2697,2697,2697,2685,2674,2674,2674,2674,2674,2662,2662,2662,2651,2651,2651,2651,2651,2651,2651,2651,2651,2662,2662,2662,2674,2674,2674,2674,2685,2697,2697,2709,2720,2720,2720,2732,2732,2745,2757,2757,2757,2757,2757,2769,2757,2757,2769,2769,2769,2769,2769,2769,2769,2769,2769,2769,0,0,0,0,0,0,0,0,0,0,0,0,0,0,0,0,0,0,0,0,0,0,0,0,0,0,0,0,0,1155,1155,1157,1157,1157,1159,1159,1162,1162,1164,1164,1164,1166,1166,1166,1168,1168,1168,1168,1168,1168,1168,1168,1166,1166,1166,1166,1162,1162,1162,1159,1157,1157,1155,1155,1155,1155,1155,1155,1155,1155,1155,1155,1155,1153,1153,1153,1155,1155,1155,1155,1157,1157,1157,1157,1159,1159,1159,1162,1164,1164,1166,1166,1166,1166,1166,1168,1168,1168,1168,1168,1168,1170,1170,1170,1170,1170,1173,1177,1177,1181,1186,1186,1191,1195,1195,1200,1200,1207,1209,1209,1211,1214,1214,1214,1219,1219,1219,1219,1219,1219,1219,1219,1219,1216,1214,1214,1214,1214,1214,1211,1211,1211,1209,1209,1207,1207,1207,1204,1204,1204,1202,1202,1202,1202,1202,1200,1200,1197,1197,1197,1195,1195,1193,1193,1193,1191,1191,1191,1188,1188,1188,1186,1186,1184,1181,1181,1181,1181,1181,1181,1181,1179,1179,1179,1179,1179,1179,1177,1177,1177,1175,1175,1175,1173,1173,1173,1173,1173,1173,1173,1170,1170,1170,1168,1168,1168,1168,1168,1166,1164,1164,1164,1164,1162,1159,1159,1155,1151,1151,1149,1149,1144,1140,1140,1136,1136,1132,1128,1128,1126,1124,1124,1122,1122,1120,1118,1118,1116,1116,1116,1114,1114,1112,1112,1112,1110,1110,1110,1108,1108,1108,1106,1106,1106,1104,1104,1102,1102,1102,1100,1100,1098,1096,1096,1094,1094,1094,1092,1092,1092,1090,1090,1090,1090,1090,1090,1090,1090,1090,1090,1088,1088,1086,1084,1084,1081,1079,1079,1077,1077,1073,1071,1071,1069,1069,1068,1068,1068,1066,1066,1066,1064,1064,1062,1062,1062,1062,1062,1062,1062,1062,1064,1064,1064,1064,1066,1068,1068,1068,1069,1069,1071,1071,1071,1071,1071,1071,1071,1071,1071,1069,1068,1068,1066,1064,1064,1062,1062,1058,1053,1053,1050,1048,1046,1042,1042,1039,1034,1034,1030,1030,1027,1024,1024,1018,1018,1015,1010,1010,1009,1007,1007,1005,1005,1004,1004,1004,1002,1002,1002,1002,1002,1002,1002,1002,999,999,999,997,997,994,992,992,991,991,991,989,989,988,986,986,985,985,985,986,0,983,983,983,981,981,981,1473,1473,1473,1477,1477,1477,1480,1480,1480,1480,1480,1484,1487,1487,1495,1495,0,0,0,0,0,0,0,0,0,0,0,0,0,0,0,0,0,0,0,0,0,0,0,0,0,0,0,0,0,0,0,0,0,0,0,0,0,0,0,0,0,0,0,0,0,0,0,0,0,2769,2769,2781,2781,2781,2781,2781,2794,2794,2794,2807,2807,2794,2794,2794,2794,2781,2781,2794,2781,2781,2781,2769,2769
2982,2982,2982,3011,3011,3026,3026,3055,3071,3071,3086,3101,3101,3117,3133,3133,3133,3133,3133,3133,3133,3133,3133,3117,3117,3117,3101,3101,3086,3071,3071,3055,3041,3041,3011,2996,2996,2968,2968,2954,2926,2926,2898,2885,2885,2845,2845,2819,2807,2807,2769,2769,2745,2732,2732,2720,2720,2720,2720,2720,2720,2720,2720,2720,2720,2732,2732,2720,2720,2720,2720,2720,2709,2709,2709,2709,2709,2709,2709,2709,2709,2709,2709,2709,2709,2709,2697,2697,2697,2685,2685,2685,2685,2685,2674,2674,2674,2662,2662,2662,2662,2651,2651,2651,2651,2651,2651,2651,2651,2651,2651,2651,2651,2651,2651,2651,2662,2674,2674,2674,2674,2685,2697,2697,2709,2720,2720,2720,2732,2732,2745,2757,2757,2757,2757,2757,2769,2757,2757,2769,2769,2769,2769,2769,2769,2769,2769,2769,2769,0,0,0,0,0,0,0,0,0,0,0,0,0,0,0,0,0,0,0,0,0,0,0,0,0,0,0,1153,1153,1153,1155,1155,1155,1157,1157,1157,1159,1159,1164,1164,1164,1166,1166,1166,1168,1168,1168,1168,1168,1170,1170,1168,1166,1166,1164,1164,1164,1162,1162,1159,1157,1157,1155,1155,1155,1155,1155,1155,1155,1155,1155,1153,1153,1153,1153,1153,1153,1155,1155,1155,1155,1155,1157,1157,1157,1159,1159,1162,1162,1162,1162,1162,1162,1162,1162,1162,1162,1162,1162,1162,1159,1159,1159,1164,1164,1164,1168,1170,1170,1177,1181,1181,1186,1195,1195,1200,1200,1204,1209,1209,1211,1214,1214,1214,1219,1219,1219,1219,1219,1219,1219,1219,1219,1216,1214,1214,1214,1214,1214,1211,1211,1211,1209,1209,1207,1207,1207,1204,1204,1204,1202,1202,1202,1202,1202,1200,1200,1197,1197,1197,1195,1195,1193,1193,1193,1191,1191,1191,1188,1188,1188,1186,1186,1184,1181,1181,1181,1181,1181,1181,1181,1179,1179,1179,1179,1179,1177,1177,1177,1177,1175,1175,1175,1173,1173,1173,1173,1170,1170,1170,1170,1170,1170,1168,1168,1168,1168,1168,1166,1164,1164,1164,1164,1162,1159,1159,1155,1151,1151,1149,1149,1144,1140,1140,1136,1136,1132,1128,1128,1128,1124,1124,1122,1122,1120,1118,1118,1116,1116,1116,1114,1114,1112,1112,1112,1110,1110,1110,1108,1108,1108,1106,1106,1106,1104,1104,1102,1102,1102,1100,1100,1098,1096,1096,1094,1094,1094,1092,1092,1092,1090,1090,1090,1092,1090,1090,1090,1090,1090,1090,1088,1088,1086,1084,1084,1081,1079,1079,1077,1077,1073,1071,1071,1069,1069,1068,1068,1068,1066,1066,1066,1064,1064,1062,1062,1062,1062,1062,1062,1062,1062,1064,1064,1064,1064,1066,1068,1068,1068,1069,1069,1071,1071,1071,1071,1071,1071,1071,1071,1071,1069,1068,1068,1066,1064,1064,1062,1062,1058,1053,1053,1050,1050,1046,1042,1042,1039,1034,1034,1030,1030,1027,1024,1024,1018,1018,1015,1010,1010,1009,1007,1007,1007,1007,1004,1004,1004,1004,1002,1002,1002,1002,1002,1002,1002,1000,999,999,997,997,996,996,0,992,991,991,989,989,989,988,988,988,988,986,986,0,983,983,983,981,981,981,0,0,981,981,0,983,983,983,983,0,0,0,0,0,0,0,972,972,972,972,972,972,972,972,972,0,0,0,0,0,0,0,0,0,0,0,0,0,0,0,0,0,0,0,0,0,0,0,0,0,0,0,0,0,0,0,0,0,0,0,0,0,0,0,0,2769,2769,2781,2781,2781,2781,2781,2794,2794,2794,2794,2794,2794,2794,2794,2794,2794,2794,2794,2794,2794,2794,2781,2781
2968,2968,2968,2996,2996,3011,3011,3041,3071,3071,3086,3101,3101,3117,3133,3133,3133,3133,3133,3133,3133,3133,3133,3117,3117,3117,3101,3101,3086,3055,3055,3041,3026,3026,2996,2996,2982,2954,2954,2926,2912,2912,2885,2885,2858,2832,2832,2807,2794,2794,2769,2769,2745,2732,2732,2720,2720,2720,2720,2720,2720,2720,2720,2720,2720,2720,2720,2720,2720,2720,2720,2709,2709,2709,2697,2697,2697,2685,2685,2685,2685,2697,2697,2697,2697,2697,2697,2697,2697,2685,2685,2685,2685,2685,2674,2674,2674,2662,2662,2662,2662,2651,2651,2651,2651,2651,2651,2651,2651,2651,2651,2651,2651,2651,2651,2651,2662,2674,2674,2674,2674,2685,2697,2697,2709,2720,2720,2732,2732,2732,2745,2757,2757,2757,2757,2769,2769,2769,2769,2769,2769,2769,2769,2769,2769,2769,2769,2769,2769,0,0,0,0,0,0,0,0,0,0,0,0,0,0,0,0,0,0,0,0,0,0,0,0,0,0,0,1153,1153,1153,1155,1155,1155,1157,1157,1157,1159,1159,1164,1166,1166,1166,1166,1166,1168,1170,1170,1170,1170,1170,1170,1168,1168,1168,1164,1164,1164,1162,1162,1159,1159,1159,1155,1155,1155,1155,1155,1155,1155,1155,1155,1153,1153,1153,1153,1153,1153,1155,1155,1155,1155,1155,1157,1157,1157,1159,1159,1162,1162,1162,1162,1162,1162,1162,1162,1162,1162,1162,1162,1162,1159,1159,1159,1164,1164,1164,1168,1170,1170,1177,1181,1181,1186,1195,1195,1200,1200,1204,1209,1209,1211,1214,1214,1219,1219,1219,1221,1221,1221,1221,1219,1219,1219,1219,1216,1216,1214,1214,1214,1211,1211,1211,1209,1209,1209,1209,1209,1209,1209,1207,1207,1207,1204,1204,1204,1202,1202,1200,1200,1200,1197,1197,1195,1195,1195,1193,1191,1191,1191,1191,1188,1186,1186,1184,1184,1184,1181,1181,1181,1181,1181,1179,1179,1179,1177,1177,1177,1175,1175,1175,1173,1173,1173,1173,1173,1173,1173,1170,1170,1170,1170,1170,1170,1170,1170,1170,1170,1170,1170,1168,1168,1168,1168,1166,1164,1164,1162,1157,1157,1153,1153,1149,1144,1144,1140,1140,1134,1132,1132,1128,1124,1124,1122,1122,1120,1118,1118,1116,1114,1114,1114,1114,1112,1110,1110,1110,1108,1108,1108,1108,1106,1104,1104,1104,1102,1102,1100,1100,1100,1098,1098,1096,1094,1094,1092,1092,1092,1090,1090,1090,1090,1090,1090,1090,1090,1090,1090,1088,1088,1088,1086,1086,1084,1082,1082,1079,1077,1077,1075,1075,1071,1069,1069,1068,1068,1068,1066,1066,1064,1064,1064,1062,1062,1062,1062,1062,1060,1060,1060,1060,1060,1060,1060,1060,1060,1062,1064,1064,1066,1066,1066,1066,1066,1066,1068,1068,1068,1068,1068,1068,1066,1064,1064,1062,1060,1060,1058,1058,1053,1051,1051,1046,1046,1042,1039,1039,1036,1032,1032,1029,1029,1024,1020,1020,1017,1017,1014,1009,1009,1007,1007,1007,1005,1005,1004,1004,1004,1002,1002,1002,1002,1002,1002,1002,1002,1000,999,999,997,997,996,994,994,992,991,991,989,989,989,988,988,988,988,986,985,985,983,983,983,981,981,981,981,981,981,981,0,983,983,983,983,0,0,0,0,0,0,0,972,972,972,972,972,972,972,972,972,0,0,0,0,0,0,0,0,0,0,0,0,0,0,0,0,0,0,0,0,0,0,0,0,0,0,0,0,0,0,0,0,0,0,0,0,0,0,0,0,2781,2781,2781,2781,2794,2794,2794,2794,2794,2794,2794,2794,2794,2794,2794,2794,2794,2794,2807,2807,2794,2794,2794,2794
2968,2968,2968,2996,2996,3011,3011,3026,3055,3055,3086,3101,3101,3117,3117,3117,3133,3133,3133,3133,3117,3101,3101,3101,3086,3086,3071,3071,3055,3026,3026,3011,2996,2996,2968,2968,2940,2926,2926,2912,2885,2885,2872,2872,2845,2819,2819,2807,2794,2794,2769,2769,2745,2732,2732,2720,2720,2720,2720,2720,2720,2720,2720,2720,2720,2720,2720,2720,2720,2720,2720,2709,2709,2709,2697,2697,2697,2685,2685,2685,2685,2685,2685,2685,2685,2685,2685,2685,2685,2685,2685,2674,2674,2674,2674,2674,2662,2662,2662,2651,2651,2651,2651,2651,2651,2639,2639,2639,2651,2651,2651,2651,2651,2651,2651,2651,2662,2674,2674,2674,2674,2685,2697,2697,2709,2720,2720,2732,2732,2732,2745,2757,2757,2757,2757,2769,2769,2769,2769,2769,2769,2769,2769,2769,2769,2769,2769,2769,2769,0,0,0,0,0,0,0,0,0,0,0,0,0,0,0,0,0,0,0,0,0,0,0,0,0,0,0,1153,1153,1153,1155,1155,1155,1157,1157,1157,1159,1159,1162,1166,1166,1166,1166,1166,1168,1168,1168,1168,1168,1168,1168,1168,1166,1166,1164,1164,1164,1162,1162,1159,1159,1159,1155,1155,1155,1155,1155,1155,1155,1155,1153,1153,1153,1153,1153,1153,1153,1155,1155,1155,1155,1155,1157,1157,1157,1159,1159,1162,1162,1162,1159,1159,1159,1162,1159,1159,1159,1159,1159,1159,1159,1159,1159,1162,1164,1164,1166,1170,1170,1175,1181,1181,1188,1195,1195,1202,1202,1207,1211,1211,1216,1221,1221,1221,1223,1223,1223,1223,1223,1223,1223,1221,1221,1221,1219,1219,1219,1219,1216,1214,1214,1211,1211,1211,1209,1209,1209,1209,1211,1209,1209,1209,1207,1207,1207,1204,1204,1204,1202,1202,1200,1200,1197,1195,1195,1195,1193,1193,1191,1191,1191,1188,1188,1186,1184,1184,1184,1184,1181,1181,1181,1179,1179,1179,1177,1177,1177,1175,1175,1175,1173,1173,1173,1173,1173,1173,1173,1173,1170,1170,1170,1170,1173,1173,1173,1173,1173,1173,1173,1173,1173,1173,1173,1170,1168,1168,1166,1162,1162,1157,1157,1153,1149,1149,1144,1144,1138,1134,1134,1130,1126,1126,1124,1124,1122,1120,1120,1116,1114,1114,1114,1114,1112,1110,1110,1110,1108,1108,1108,1108,1106,1104,1104,1104,1102,1102,1100,1100,1100,1098,1098,1096,1094,1094,1092,1092,1092,1090,1090,1090,1090,1090,1090,1090,1090,1090,1090,1088,1088,1088,1086,1086,1084,1081,1081,1077,1075,1075,1071,1071,1068,1066,1066,1066,1066,1064,1064,1064,1062,1062,1062,1060,1060,1060,1058,1058,1058,1058,1058,1058,1058,1058,1058,1060,1060,1060,1062,1062,1062,1062,1062,1062,1062,1062,1064,1064,1062,1062,1062,1062,1062,1060,1060,1057,1055,1055,1053,1053,1050,1046,1046,1042,1042,1039,1036,1036,1032,1029,1029,1025,1025,1022,1018,1018,1015,1015,1012,1009,1009,1007,1005,1005,1004,1004,1004,1002,1002,1002,1002,1002,1002,1002,1002,1002,1002,1000,999,999,997,997,996,994,994,994,992,992,991,991,991,989,989,988,988,986,985,985,985,983,983,983,983,983,981,981,981,981,983,983,983,983,983,983,983,0,0,0,0,975,972,972,972,972,972,972,972,972,972,974,974,0,0,0,0,0,0,0,965,965,962,960,960,957,954,954,953,953,953,0,0,950,950,0,0,0,0,0,0,0,0,0,0,0,0,0,0,2781,2781,2781,2781,2781,2781,2781,2781,2781,2794,2794,2794,2794,2794,2794,2794,2794,2794,2794,2794,2794,2794,2794,2794,2794,2794
2968,2968,2968,2996,2996,3026,3026,3026,3055,3055,3086,3101,3101,3117,3117,3117,3133,3133,3133,3133,3117,3101,3101,3101,3086,3086,3071,3071,3055,3026,3026,3011,2996,2996,2968,2968,2940,2926,2926,2912,2885,2885,2872,2872,2845,2819,2819,2807,2794,2794,2769,2769,2757,2745,2745,2732,2720,2720,2720,2732,2732,2732,2732,2732,2732,2732,2732,2720,2720,2720,2720,2709,2709,2709,2697,2697,2697,2685,2685,2685,2685,2685,2685,2685,2685,2685,2685,2685,2685,2685,2685,2674,2674,2674,2674,2674,2662,2662,2662,2651,2651,2651,2651,2651,2651,2639,2639,2639,2651,2651,2651,2651,2651,2662,2662,2662,2674,2674,2674,2685,2685,2685,2697,2697,2709,2720,2720,2732,2745,2745,2757,2757,2757,2769,2769,2769,2769,2769,2769,2781,2781,2781,2781,2781,2781,2781,2781,2781,2781,0,0,0,0,0,0,0,0,0,0,0,0,0,0,0,0,0,0,0,0,0,0,0,0,0,0,0,1153,1153,1153,1153,1155,1155,1157,1157,1157,1159,1159,1162,1164,1164,1164,1164,1164,1166,1166,1166,1166,1166,1166,1166,1166,1166,1166,1164,1164,1164,1162,1162,1159,1159,1159,1157,1157,1157,1155,1155,1155,1155,1155,1153,1153,1153,1153,1155,1155,1155,1155,1155,1155,1157,1157,1157,1157,1159,1159,1159,1162,1162,1162,1159,1159,1159,1162,1159,1159,1159,1159,1159,1159,1159,1159,1159,1162,1164,1164,1166,1170,1170,1175,1181,1181,1188,1195,1195,1202,1202,1207,1211,1211,1216,1221,1221,1221,1223,1223,1223,1223,1223,1223,1223,1221,1221,1221,1219,1219,1219,1219,1216,1214,1214,1211,1211,1211,1209,1209,1209,1209,1211,1209,1209,1209,1207,1207,1207,1204,1204,1204,1202,1202,1200,1200,1197,1195,1195,1195,1193,1193,1191,1191,1191,1188,1188,1186,1184,1184,1184,1184,1181,1181,1181,1179,1179,1179,1177,1177,1177,1175,1175,1173,1170,1170,1170,1170,1170,1168,1168,1168,1168,1170,1170,1170,1173,1173,1173,1173,1173,1173,1173,1173,1173,1173,1173,1170,1168,1168,1166,1162,1162,1157,1157,1153,1149,1149,1144,1144,1138,1134,1134,1130,1126,1126,1124,1124,1122,1120,1120,1116,1114,1114,1114,1114,1112,1110,1110,1110,1108,1108,1106,1106,1106,1104,1104,1102,1100,1100,1100,1100,1098,1096,1096,1096,1094,1094,1092,1092,1090,1090,1090,1088,1088,1088,1088,1088,1088,1088,1088,1088,1086,1086,1084,1084,1082,1081,1081,1077,1075,1075,1071,1071,1068,1066,1066,1066,1066,1064,1064,1064,1062,1062,1062,1060,1060,1060,1058,1058,1058,1058,1058,1058,1058,1058,1058,1060,1060,1060,1062,1062,1062,1062,1062,1062,1062,1062,1064,1064,1062,1062,1062,1062,1062,1060,1060,1057,1055,1055,1053,1053,1050,1046,1046,1042,1042,1039,1036,1036,1032,1029,1029,1025,1025,1022,1018,1018,1015,1015,1012,1009,1009,1007,1005,1005,1004,1004,1004,1002,1002,1002,1002,1002,1002,1002,1002,1002,1002,1000,999,999,997,997,997,996,996,994,992,992,991,991,991,991,991,989,989,988,988,988,986,985,985,985,985,985,983,983,983,983,983,983,985,983,983,983,983,0,0,0,0,975,975,975,975,974,974,974,974,974,974,974,974,0,0,0,0,0,0,0,965,965,962,960,960,957,954,954,953,953,953,0,0,950,950,0,0,0,0,0,0,0,0,0,0,0,0,0,0,2781,2781,2781,2781,2781,2781,2781,2781,2781,2794,2794,2794,2794,2794,2794,2794,2794,2794,2794,2794,2794,2794,2794,2794,2794,2794
2968,2968,2968,2996,2996,3026,3026,3026,3055,3055,3086,3101,3101,3117,3117,3117,3117,3117,3101,3101,3101,3086,3086,3071,3071,3071,3041,3041,3026,3011,3011,2996,2982,2982,2954,2954,2940,2926,2926,2898,2885,2885,2872,2872,2845,2819,2819,2807,2794,2794,2769,2769,2757,2745,2745,2732,2720,2720,2720,2732,2732,2732,2732,2732,2732,2732,2732,2720,2720,2720,2720,2709,2709,2709,2697,2697,2697,2685,2685,2685,2685,2685,2685,2685,2685,2685,2685,2685,2685,2685,2685,2674,2674,2674,2674,2674,2662,2662,2662,2651,2651,2651,2651,2651,2651,2639,2639,2639,2651,2651,2651,2651,2651,2662,2662,2662,2674,2674,2674,2685,2685,2685,2697,2697,2709,2720,2720,2732,2745,2745,2757,2757,2757,2769,2769,2769,2781,2781,2781,2781,2781,2781,2781,2781,2781,2781,2781,2781,2781,0,0,0,0,0,0,0,0,0,0,0,0,0,0,0,0,0,0,0,0,0,0,0,0,0,0,0,0,0,1153,1153,1155,1155,1157,1157,1157,1159,1159,1162,1164,1164,1164,1164,1164,1166,1166,1166,1166,1166,1166,1166,1166,1166,1166,1164,1164,1164,1162,1162,1159,1159,1159,1159,1159,1157,1157,1157,1157,1155,1155,1155,1155,1155,1155,1155,1155,1155,1157,1157,1157,1157,1157,1159,1159,1159,1162,1162,1162,1164,1162,1162,1162,1162,1162,1159,1159,1162,1159,1159,1159,1159,1159,1159,1162,1164,1164,1170,1173,1173,1179,1184,1184,1193,1200,1200,1207,1207,1214,1219,1219,1221,1223,1223,1228,1231,1231,1231,1231,1231,1231,1228,1228,1228,1226,1223,1223,1221,1221,1219,1216,1216,1216,1214,1214,1211,1211,1211,1211,1211,1211,1209,1209,1209,1209,1209,1207,1207,1207,1204,1204,1202,1202,1202,1200,1200,1197,1195,1195,1193,1193,1191,1188,1188,1186,1186,1186,1184,1184,1181,1179,1179,1177,1175,1175,1175,1175,1173,1170,1170,1170,1168,1168,1168,1168,1166,1166,1166,1166,1166,1166,1166,1168,1168,1170,1173,1173,1173,1175,1175,1175,1175,1175,1175,1173,1170,1170,1168,1164,1164,1162,1162,1157,1153,1153,1147,1147,1142,1138,1138,1134,1128,1128,1126,1126,1124,1120,1120,1118,1116,1116,1114,1114,1112,1110,1110,1110,1108,1108,1106,1106,1104,1102,1102,1100,1100,1100,1098,1098,1096,1094,1094,1094,1092,1092,1090,1090,1090,1090,1090,1088,1088,1088,1086,1086,1086,1086,1088,1086,1084,1084,1084,1084,1081,1079,1079,1075,1075,1073,1069,1069,1068,1066,1066,1064,1064,1064,1062,1062,1062,1060,1060,1060,1060,1058,1058,1058,1058,1057,1057,1057,1057,1057,1057,1058,1058,1058,1058,1058,1058,1058,1060,1060,1060,1060,1060,1060,1058,1058,1058,1058,1057,1057,1057,1053,1053,1051,1048,1048,1046,1041,1041,1039,1039,1036,1030,1030,1029,1025,1025,1022,1022,1018,1015,1015,1012,1012,1010,1007,1007,1005,1004,1004,1002,1002,1002,1002,1002,1002,1002,1002,1002,1002,1000,1000,1000,1000,999,999,997,997,997,996,996,994,992,992,991,991,991,991,991,989,989,988,988,988,986,985,985,985,985,985,983,983,983,983,983,983,983,983,983,983,981,980,980,978,978,975,975,975,975,974,974,974,974,974,974,974,974,974,974,972,972,971,969,969,965,965,962,960,960,957,954,954,953,953,953,953,953,950,950,0,0,0,0,0,0,0,0,0,0,0,0,0,0,0,0,2794,2794,2794,2794,2807,2807,2807,2807,2807,2807,2807,2794,2794,2794,2794,2794,2794,2794,2794,2794,2794,2794,2794,2794
2968,2968,2982,2996,2996,3026,3026,3041,3071,3071,3086,3101,3101,3101,3101,3101,3101,3101,3086,3086,3086,3071,3071,3055,3041,3041,3026,3026,3011,2996,2996,2968,2954,2954,2940,2940,2926,2898,2898,2885,2872,2872,2858,2858,2845,2819,2819,2807,2794,2794,2769,2769,2757,2745,2745,2745,2745,2745,2745,2745,2745,2745,2745,2745,2745,2745,2745,2732,2732,2720,2720,2720,2709,2709,2697,2697,2697,2685,2685,2685,2685,2685,2685,2685,2685,2685,2685,2685,2685,2685,2685,2674,2674,2674,2674,2674,2674,2662,2662,2662,2662,2662,2651,2651,2651,2651,2651,2651,2662,2662,2662,2662,2662,2662,2674,2674,2674,2685,2685,2685,2685,2697,2709,2709,2709,2732,2732,2732,2745,2745,2757,2757,2769,2769,2769,2769,2781,2781,2781,2781,2781,2781,2781,2781,2781,2781,2781,2781,2781,0,0,0,0,0,0,0,0,0,0,0,0,0,0,0,0,0,0,0,0,0,0,0,0,0,0,0,1153,1153,1153,1153,1155,1155,1155,1155,1155,1159,1159,1159,1162,1162,1162,1164,1164,1164,1164,1164,1164,1164,1166,1166,1164,1164,1166,1164,1164,1164,1162,1162,1159,1159,1159,1159,1159,1157,1157,1157,1157,1155,1155,1155,1155,1155,1155,1155,1155,1155,1157,1157,1157,1157,1157,1159,1159,1159,1162,1162,1162,1164,1162,1162,1162,1162,1162,1159,1159,1159,1159,1159,1159,1159,1159,1159,1162,1164,1164,1170,1173,1173,1179,1184,1184,1193,1200,1200,1207,1207,1214,1219,1219,1221,1223,1223,1228,1231,1231,1231,1231,1231,1231,1228,1228,1228,1226,1223,1223,1221,1221,1219,1216,1216,1216,1214,1214,1211,1211,1211,1211,1211,1211,1209,1209,1209,1209,1209,1207,1207,1207,1204,1204,1202,1202,1202,1200,1200,1197,1195,1195,1193,1193,1191,1188,1188,1186,1186,1186,1184,1184,1181,1179,1179,1177,1175,1175,1175,1175,1173,1170,1170,1170,1168,1168,1168,1168,1166,1166,1166,1166,1166,1166,1166,1168,1168,1170,1173,1173,1173,1175,1175,1175,1175,1175,1175,1175,1173,1173,1170,1166,1166,1162,1162,1159,1155,1155,1149,1149,1144,1140,1140,1136,1132,1132,1128,1128,1124,1122,1122,1118,1116,1116,1114,1114,1112,1110,1110,1110,1108,1108,1106,1106,1104,1102,1102,1100,1100,1100,1098,1098,1096,1094,1094,1094,1092,1092,1090,1090,1090,1090,1090,1088,1088,1088,1086,1086,1086,1086,1088,1086,1084,1084,1084,1084,1081,1079,1079,1075,1075,1073,1069,1069,1068,1066,1066,1064,1064,1064,1062,1062,1062,1060,1060,1060,1060,1058,1058,1058,1058,1057,1057,1057,1057,1057,1057,1058,1058,1058,1058,1058,1058,1058,1060,1060,1060,1060,1060,1060,1058,1058,1058,1058,1057,1057,1057,1053,1053,1051,1048,1048,1041,1039,1039,1034,1034,1030,1027,1027,1025,1025,1022,1018,1018,1015,1014,1014,1010,1010,1007,1005,1005,1004,1002,1002,1002,1002,1002,1002,1002,1000,1000,1002,1002,1002,1000,1000,1000,1000,999,999,997,997,997,996,996,996,994,994,992,992,992,991,991,991,991,988,988,988,988,986,986,986,986,985,983,983,983,983,983,983,983,983,983,983,981,980,980,978,978,977,975,975,975,975,975,975,975,974,974,975,975,974,974,972,972,971,969,969,966,966,963,962,962,960,956,956,956,956,954,953,953,953,953,953,953,953,953,953,0,0,0,0,0,0,0,0,0,0,0,2794,2794,2794,2794,2807,2807,2807,2807,2807,2794,2794,2794,2781,2781,2781,2781,2781,2781,2781,2781,2781,2781,2794,2794
2954,2954,2982,2996,2996,3011,3011,3041,3055,3055,3086,3086,3086,3101,3101,3101,3101,3101,3086,3086,3086,3071,3071,3055,3041,3041,3026,3026,3011,2996,2996,2968,2954,2954,2940,2940,2926,2898,2898,2885,2872,2872,2858,2858,2845,2832,2832,2819,2807,2807,2794,2794,2769,2757,2757,2757,2745,2745,2745,2757,2757,2757,2757,2745,2745,2745,2745,2745,2745,2745,2745,2732,2720,2720,2709,2709,2709,2697,2697,2697,2685,2685,2685,2685,2685,2685,2685,2685,2685,2685,2685,2685,2685,2685,2674,2674,2674,2674,2674,2662,2662,2662,2662,2662,2662,2662,2662,2662,2662,2662,2662,2674,2674,2674,2674,2674,2685,2697,2697,2697,2697,2709,2709,2709,2720,2732,2732,2745,2757,2757,2757,2757,2769,2769,2769,2781,2781,2781,2781,2794,2794,2794,2794,2794,2794,2794,2794,2794,2794,0,0,0,0,0,0,0,0,0,0,0,0,0,0,0,0,0,0,0,0,0,0,0,0,0,0,0,1153,1153,1153,1153,1155,1155,1155,1155,1155,1159,1159,1159,1162,1162,1162,1162,1162,1162,1162,1162,1162,1162,1162,1162,1162,1162,1162,1162,1162,1162,1162,1162,1162,1162,1162,1159,1159,1159,1159,1159,1157,1155,1155,1155,1155,1155,1155,1155,1155,1155,1157,1157,1157,1159,1159,1159,1159,1159,1162,1162,1162,1164,1164,1162,1162,1162,1162,1159,1159,1159,1159,1159,1162,1162,1162,1162,1164,1168,1168,1173,1177,1177,1181,1188,1188,1195,1202,1202,1214,1219,1219,1223,1223,1226,1231,1231,1236,1238,1238,1238,1238,1236,1236,1236,1233,1233,1228,1228,1228,1223,1223,1221,1219,1219,1219,1216,1216,1214,1214,1214,1214,1214,1211,1211,1211,1211,1211,1211,1209,1209,1207,1207,1207,1204,1204,1202,1200,1200,1197,1195,1195,1193,1193,1191,1188,1188,1186,1184,1184,1184,1184,1179,1177,1177,1175,1175,1175,1173,1173,1170,1168,1168,1166,1164,1164,1164,1164,1164,1164,1164,1164,1164,1166,1166,1166,1166,1168,1170,1170,1173,1173,1173,1175,1175,1175,1175,1175,1173,1173,1170,1166,1166,1162,1162,1159,1155,1155,1149,1147,1144,1140,1140,1136,1132,1132,1128,1128,1124,1122,1122,1118,1116,1116,1114,1114,1112,1110,1110,1110,1108,1108,1104,1104,1104,1102,1102,1100,1098,1098,1096,1096,1094,1092,1092,1090,1090,1090,1088,1088,1088,1088,1088,1086,1086,1086,1084,1084,1084,1084,1084,1084,1082,1082,1081,1081,1079,1077,1077,1075,1075,1071,1069,1069,1066,1064,1064,1062,1062,1062,1062,1062,1060,1060,1060,1058,1058,1058,1058,1058,1057,1057,1057,1055,1055,1055,1057,1057,1057,1057,1057,1057,1058,1058,1058,1058,1058,1057,1057,1057,1057,1057,1055,1055,1053,1051,1051,1050,1050,1048,1044,1044,1041,1039,1039,1034,1034,1030,1027,1027,1025,1025,1022,1018,1018,1015,1014,1014,1010,1010,1007,1005,1005,1004,1002,1002,1002,1002,1002,1002,1002,1000,1000,1002,1002,1002,1002,1002,1002,1002,1002,1002,1000,1000,999,999,999,997,996,996,994,994,992,992,992,991,991,989,988,988,988,986,986,986,986,985,983,983,983,983,983,983,985,983,983,983,981,980,980,978,978,977,975,975,975,975,975,975,975,975,975,975,975,975,975,972,972,971,969,969,966,966,965,963,963,960,959,959,957,957,956,954,954,953,953,953,953,953,953,953,0,0,0,0,0,0,0,0,0,0,0,2807,2807,2807,2807,2807,2807,2807,2807,2807,2794,2794,2794,2781,2781,2781,2781,2781,2781,2781,2781,2781,2781,2794,2794
2954,2954,2968,2996,2996,3011,3011,3026,3055,3055,3071,3071,3071,3101,3101,3101,3101,3086,3071,3071,3055,3041,3041,3026,3011,3011,2996,2996,2982,2968,2968,2954,2940,2940,2926,2926,2912,2898,2898,2885,2872,2872,2858,2858,2845,2832,2832,2819,2807,2807,2794,2794,2769,2757,2757,2757,2745,2745,2745,2757,2757,2757,2757,2745,2745,2745,2745,2745,2745,2745,2745,2732,2720,2720,2709,2709,2709,2697,2697,2697,2685,2685,2685,2685,2685,2685,2685,2685,2685,2685,2685,2685,2685,2685,2674,2674,2674,2674,2674,2662,2662,2662,2662,2662,2662,2662,2662,2662,2662,2662,2662,2674,2674,2674,2674,2674,2685,2697,2697,2697,2697,2709,2709,2709,2720,2732,2732,2745,2757,2757,2757,2757,2769,2769,2769,2781,2781,2781,2781,2794,2794,2794,2794,2794,2794,2794,2794,2794,2794,0,0,0,0,0,0,0,0,0,0,0,0,0,0,0,0,0,0,0,0,0,0,0,0,0,0,0,1153,1153,1153,1153,1155,1155,1155,1155,1155,1157,1157,1159,1159,1159,1162,1162,1162,1162,1162,1162,1162,1162,1162,1162,1162,1162,1162,1162,1162,1162,1162,1162,1162,1162,1162,1162,1162,1159,1159,1159,1157,1157,1157,1157,1157,1157,1157,1157,1157,1157,1159,1159,1159,1159,1159,1162,1162,1162,1162,1162,1164,1164,1164,1164,1164,1162,1162,1162,1162,1162,1162,1162,1164,1164,1164,1164,1166,1170,1170,1175,1181,1181,1188,1195,1195,1202,1209,1209,1219,1223,1223,1231,1231,1233,1238,1238,1241,1243,1243,1243,1246,1243,1243,1241,1241,1241,1236,1233,1233,1228,1228,1223,1221,1221,1221,1219,1219,1216,1216,1216,1216,1216,1214,1214,1214,1214,1214,1214,1211,1211,1209,1209,1209,1207,1207,1204,1202,1202,1200,1197,1197,1195,1195,1193,1191,1191,1186,1184,1184,1184,1184,1179,1177,1177,1175,1175,1175,1173,1173,1170,1168,1168,1166,1164,1164,1164,1164,1164,1164,1164,1164,1164,1166,1166,1166,1166,1168,1170,1170,1173,1173,1173,1175,1175,1175,1175,1175,1173,1173,1170,1168,1168,1162,1162,1159,1157,1157,1151,1147,1147,1142,1142,1136,1132,1132,1128,1128,1126,1122,1122,1118,1116,1116,1114,1114,1112,1110,1110,1110,1106,1106,1104,1104,1102,1100,1100,1098,1098,1096,1092,1092,1090,1090,1090,1088,1088,1088,1086,1086,1086,1086,1086,1084,1084,1084,1084,1084,1084,1082,1082,1082,1082,1082,1081,1081,1077,1075,1075,1073,1073,1071,1069,1069,1066,1064,1064,1062,1062,1062,1062,1062,1060,1060,1060,1058,1058,1058,1057,1057,1057,1057,1057,1055,1055,1055,1055,1055,1055,1057,1057,1057,1057,1057,1057,1057,1057,1055,1055,1055,1055,1053,1053,1053,1051,1050,1050,1048,1048,1044,1041,1041,1039,1036,1036,1032,1032,1029,1025,1025,1022,1022,1018,1015,1015,1014,1010,1010,1007,1007,1005,1004,1004,1002,1000,1000,1000,1000,1000,1000,1000,1000,1000,1000,1000,1000,1000,1000,1000,1000,1000,1000,1000,1000,999,999,999,997,996,996,994,994,992,992,992,991,991,989,988,988,988,986,986,986,986,985,983,983,983,983,983,983,985,983,983,983,981,978,978,977,977,977,975,975,975,975,975,974,974,974,974,975,975,974,974,972,972,971,969,969,966,966,963,963,963,960,959,959,957,957,956,954,954,953,953,953,953,953,953,953,954,954,956,956,956,957,957,0,0,0,0,2807,2807,2807,2807,2807,2807,2807,2807,2807,2794,2794,2781,2781,2781,2781,2781,2781,2781,2781,2781,2781,2781,2794,2794
2954,2954,2968,2996,2996,3011,3011,3026,3055,3055,3071,3071,3071,3101,3101,3101,3101,3086,3071,3071,3055,3041,3041,3026,3011,3011,2996,2996,2982,2968,2968,2954,2940,2940,2926,2926,2912,2898,2898,2885,2872,2872,2858,2858,2858,2845,2845,2832,2819,2819,2807,2807,2781,2769,2769,2769,2757,2757,2757,2757,2757,2757,2757,2757,2757,2757,2757,2757,2757,2745,2745,2745,2732,2732,2720,2709,2709,2709,2697,2697,2697,2697,2697,2697,2697,2697,2697,2697,2697,2697,2697,2697,2697,2685,2685,2685,2685,2685,2685,2674,2674,2674,2674,2674,2674,2674,2674,2674,2674,2674,2674,2685,2685,2685,2685,2685,2697,2697,2697,2709,2709,2709,2720,2720,2732,2745,2745,2745,2757,2757,2757,2757,2769,2769,2769,2781,2781,2781,2781,2794,2794,2794,2794,2794,2794,2794,2794,2807,2807,0,0,0,0,0,0,0,0,0,0,0,0,0,0,0,0,0,0,0,0,0,0,0,0,0,0,0,1153,1153,1153,1153,1155,1155,1155,1155,1155,1157,1157,1159,1159,1159,1159,1159,1159,1162,1159,1159,1159,1159,1159,1159,1159,1159,1159,1159,1159,1159,1159,1162,1162,1162,1162,1162,1162,1159,1159,1159,1157,1157,1157,1157,1157,1157,1157,1157,1157,1157,1159,1159,1159,1159,1159,1162,1162,1162,1162,1162,1164,1164,1164,1164,1164,1162,1162,1162,1162,1162,1162,1162,1164,1164,1164,1164,1166,1170,1170,1175,1181,1181,1188,1195,1195,1202,1209,1209,1219,1223,1223,1231,1231,1233,1238,1238,1241,1243,1243,1243,1246,1243,1243,1241,1241,1241,1236,1233,1233,1228,1228,1223,1221,1221,1221,1219,1219,1216,1216,1216,1216,1216,1214,1214,1214,1214,1214,1214,1211,1211,1209,1209,1209,1207,1207,1204,1202,1202,1200,1197,1197,1195,1195,1193,1191,1191,1186,1184,1184,1184,1184,1179,1177,1177,1175,1173,1173,1170,1170,1168,1166,1166,1164,1162,1162,1162,1162,1162,1162,1162,1162,1162,1164,1164,1164,1164,1166,1170,1170,1173,1173,1173,1175,1175,1175,1175,1175,1173,1173,1170,1168,1168,1164,1164,1159,1157,1157,1153,1149,1149,1142,1142,1138,1134,1134,1130,1130,1126,1122,1122,1120,1116,1116,1114,1114,1112,1112,1112,1110,1106,1106,1104,1104,1102,1100,1100,1098,1098,1096,1092,1092,1090,1090,1090,1088,1088,1088,1086,1086,1086,1086,1086,1084,1084,1084,1084,1084,1084,1082,1082,1082,1082,1082,1081,1081,1077,1075,1075,1073,1073,1071,1069,1069,1066,1064,1064,1062,1062,1062,1062,1062,1060,1060,1060,1058,1058,1058,1057,1057,1057,1057,1057,1055,1055,1055,1055,1055,1055,1057,1057,1057,1057,1057,1057,1057,1057,1055,1055,1055,1055,1053,1053,1053,1051,1050,1050,1048,1048,1044,1041,1041,1039,1036,1036,1032,1032,1029,1025,1025,1022,1022,1018,1015,1015,1014,1010,1010,1007,1007,1005,1004,1004,1002,1000,1000,1000,1000,1000,1000,1000,1000,1000,1000,1000,1000,1000,1000,1000,1000,1000,1000,1000,1000,999,999,999,999,999,999,997,997,997,996,996,996,994,992,992,992,991,989,989,988,988,988,986,986,985,985,985,985,985,983,983,983,981,978,978,977,977,977,975,975,975,975,975,974,974,974,974,975,975,974,974,972,972,971,968,968,966,966,963,963,963,960,959,959,957,957,956,956,956,954,953,953,953,953,953,954,954,954,956,956,956,957,957,960,962,962,963,2819,2807,2807,2807,2807,2807,2807,2807,2807,2794,2794,2781,2781,2781,2781,2781,2781,2781,2781,2781,2781,2781,2794,2794
2940,2940,2954,2954,2982,2996,2996,3011,3026,3026,3041,3055,3055,3071,3071,3055,3055,3055,3041,3041,3026,3011,3011,3011,3011,2982,2982,2982,2954,2954,2954,2940,2926,2926,2912,2912,2898,2898,2898,2885,2872,2872,2858,2858,2858,2845,2845,2832,2819,2819,2807,2807,2781,2769,2769,2769,2757,2757,2757,2757,2769,2757,2757,2757,2757,2757,2757,2757,2757,2745,2745,2745,2732,2732,2720,2709,2709,2709,2697,2697,2697,2697,2697,2697,2697,2697,2697,2697,2697,2709,2697,2697,2697,2697,2697,2697,2697,2697,2697,2685,2685,2685,2685,2685,2685,2685,2685,2685,2685,2685,2685,2685,2685,2697,2697,2697,2697,2709,2709,2709,2709,2720,2720,2720,2732,2745,2745,2757,2757,2757,2769,2769,2781,2781,2781,2781,2781,2781,2794,2794,2794,2794,2794,2794,2794,2794,2807,2807,2807,0,0,0,0,0,0,0,0,0,0,0,0,0,0,0,0,0,0,0,0,0,0,0,0,0,0,0,1155,1155,1155,1155,1155,1155,1155,1155,1155,1157,1157,1159,1159,1159,1159,1159,1159,1162,1159,1159,1159,1159,1159,1159,1159,1159,1159,1159,1159,1159,1159,1162,1162,1162,1162,1162,1162,1162,1159,1159,1159,1159,1159,1159,1159,1159,1159,1159,1157,1157,1159,1159,1162,1162,1162,1162,1162,1164,1164,1164,1164,1166,1166,1166,1166,1166,1166,1166,1166,1166,1166,1168,1168,1168,1173,1175,1175,1179,1179,1184,1188,1188,1195,1202,1202,1209,1216,1216,1221,1228,1228,1236,1236,1241,1243,1243,1248,1251,1251,1251,1253,1251,1251,1251,1246,1246,1243,1236,1236,1231,1231,1228,1226,1226,1221,1221,1221,1219,1219,1219,1219,1219,1216,1216,1216,1216,1216,1214,1214,1214,1211,1211,1211,1209,1209,1207,1204,1204,1202,1200,1200,1197,1197,1195,1191,1191,1188,1184,1184,1181,1181,1179,1177,1177,1175,1170,1170,1168,1168,1166,1164,1164,1162,1159,1159,1159,1159,1159,1159,1159,1159,1159,1162,1162,1162,1162,1166,1168,1168,1170,1173,1173,1175,1175,1175,1175,1175,1173,1173,1170,1168,1168,1164,1164,1159,1157,1157,1153,1149,1149,1142,1142,1138,1134,1134,1130,1130,1126,1122,1122,1120,1116,1116,1114,1114,1112,1112,1112,1110,1106,1106,1104,1104,1102,1100,1100,1096,1096,1094,1092,1092,1090,1088,1088,1086,1086,1084,1084,1084,1084,1084,1084,1082,1082,1082,1082,1082,1082,1082,1082,1082,1082,1081,1079,1079,1077,1075,1075,1073,1073,1071,1069,1069,1066,1064,1064,1062,1062,1062,1062,1062,1060,1060,1060,1058,1058,1058,1057,1057,1057,1057,1057,1055,1055,1055,1055,1055,1055,1057,1057,1057,1057,1055,1055,1055,1055,1053,1053,1053,1053,1051,1051,1051,1050,1048,1048,1044,1044,1042,1039,1039,1036,1034,1034,1030,1030,1027,1022,1022,1018,1018,1017,1014,1014,1010,1009,1009,1007,1007,1005,1002,1002,1000,1000,1000,1000,1000,999,999,999,999,999,999,999,999,999,999,1000,1000,999,999,999,999,999,999,999,999,997,997,997,997,997,996,996,996,994,994,992,992,991,989,989,989,989,988,988,988,986,986,986,985,985,985,983,983,981,980,980,978,978,978,977,977,977,977,977,975,975,975,975,975,975,974,974,972,972,971,968,968,966,966,965,963,963,962,959,959,957,957,956,956,956,954,954,954,954,954,954,954,954,954,956,957,957,959,959,960,962,962,963,2819,2819,2819,2819,2807,2807,2807,2807,2807,2794,2794,2781,2781,2781,2781,2781,2781,2781,2781,2781,2781,2781,2794,2794
2940,2940,2954,2954,2982,2996,2996,2996,3011,3011,3026,3041,3041,3041,3041,3026,3026,3026,3011,3011,2996,2996,2996,2968,2968,2968,2954,2954,2940,2926,2926,2912,2912,2912,2898,2898,2898,2885,2885,2872,2872,2872,2858,2858,2858,2845,2845,2832,2832,2832,2819,2819,2794,2781,2781,2769,2769,2769,2757,2757,2769,2757,2757,2757,2757,2757,2757,2757,2757,2745,2745,2745,2732,2732,2720,2709,2709,2709,2697,2697,2697,2697,2697,2697,2697,2697,2697,2697,2697,2709,2697,2697,2697,2697,2697,2697,2697,2697,2697,2685,2685,2685,2685,2685,2685,2685,2685,2685,2685,2685,2685,2685,2685,2697,2697,2697,2697,2709,2709,2709,2709,2720,2720,2720,2732,2745,2745,2757,2757,2757,2769,2769,2781,2781,2781,2781,2781,2781,2781,2794,2794,2794,2794,2794,2794,2794,2807,2807,2807,0,0,0,0,0,0,0,0,0,0,0,0,0,0,0,0,0,0,0,0,0,0,0,0,0,0,0,1155,1155,1155,1155,1155,1155,1155,1155,1155,1157,1157,1159,1159,1159,1159,1159,1159,1159,1159,1159,1159,1159,1159,1159,1159,1159,1159,1159,1159,1159,1159,1162,1162,1162,1162,1162,1162,1162,1159,1159,1159,1159,1159,1159,1159,1159,1159,1159,1157,1157,1159,1159,1162,1162,1162,1162,1162,1164,1164,1164,1164,1166,1166,1166,1173,1173,1175,1175,1177,1177,1177,1179,1184,1184,1186,1188,1188,1191,1191,1195,1200,1200,1204,1211,1211,1216,1223,1223,1228,1236,1236,1241,1241,1246,1248,1248,1253,1256,1256,1258,1261,1258,1258,1258,1256,1256,1253,1248,1248,1241,1241,1236,1233,1233,1228,1223,1223,1221,1221,1219,1219,1219,1219,1219,1219,1219,1219,1216,1214,1214,1214,1211,1211,1209,1209,1207,1207,1207,1202,1200,1200,1197,1197,1195,1193,1193,1188,1186,1186,1181,1181,1179,1177,1177,1175,1170,1170,1168,1168,1166,1164,1164,1162,1159,1159,1159,1159,1159,1159,1159,1159,1159,1162,1162,1162,1162,1166,1168,1168,1170,1173,1173,1175,1175,1175,1175,1175,1173,1173,1170,1168,1168,1164,1164,1159,1159,1159,1153,1153,1149,1144,1144,1140,1136,1136,1132,1132,1128,1124,1124,1120,1118,1118,1116,1116,1112,1112,1112,1110,1108,1108,1104,1104,1102,1100,1100,1096,1096,1094,1092,1092,1090,1088,1088,1086,1086,1084,1084,1084,1084,1084,1084,1082,1082,1081,1081,1082,1081,1081,1081,1081,1081,1079,1079,1079,1077,1075,1075,1073,1073,1071,1069,1069,1066,1066,1066,1064,1064,1062,1062,1062,1060,1060,1060,1060,1060,1058,1058,1058,1057,1057,1057,1055,1055,1055,1055,1055,1055,1055,1055,1055,1055,1055,1055,1055,1053,1053,1053,1051,1051,1050,1050,1050,1048,1046,1046,1042,1042,1041,1037,1037,1034,1032,1032,1027,1027,1025,1022,1022,1018,1018,1015,1012,1012,1010,1009,1009,1005,1005,1004,1002,1002,1000,1000,999,999,999,999,999,999,997,997,997,999,999,997,997,997,997,997,997,997,997,997,997,997,997,997,997,997,997,996,996,996,996,994,994,992,992,991,989,989,989,989,988,988,988,986,986,986,985,985,985,983,983,981,980,980,978,978,978,977,977,977,977,977,975,975,975,975,975,975,974,974,972,972,971,968,968,966,966,965,963,963,962,959,959,957,957,956,956,956,954,954,954,954,954,954,954,954,954,956,957,957,959,959,960,962,962,963,966,966,2819,2819,2807,2807,2807,2807,2807,2794,2794,2781,2781,2781,2781,2781,2781,2781,2781,2781,2781,2781,2794,2794
2940,2940,2954,2954,2982,2996,2996,2996,3011,3011,3026,3041,3041,3041,3041,3026,3026,3026,3011,3011,2996,2996,2996,2968,2968,2968,2954,2954,2940,2926,2926,2912,2912,2912,2898,2898,2898,2885,2885,2872,2872,2872,2858,2858,2858,2858,2858,2845,2832,2832,2819,2819,2807,2781,2781,2781,2769,2769,2769,2769,2769,2757,2757,2757,2757,2757,2757,2757,2757,2745,2745,2745,2732,2732,2720,2720,2720,2709,2697,2697,2697,2697,2697,2697,2709,2709,2709,2709,2709,2709,2709,2709,2709,2709,2697,2697,2697,2697,2697,2697,2697,2697,2685,2685,2685,2685,2685,2685,2697,2697,2697,2697,2697,2697,2697,2697,2697,2709,2709,2709,2709,2720,2732,2732,2732,2745,2745,2757,2757,2757,2769,2769,2769,2781,2781,2781,2781,2781,2781,2794,2794,2794,2794,2794,2794,2794,2807,0,0,0,0,0,0,0,0,0,0,0,0,0,0,0,0,0,0,0,0,0,0,0,0,0,0,0,0,0,1155,1155,1155,1155,1155,1155,1155,1155,1155,1157,1157,1159,1159,1159,1159,1159,1159,1159,1159,1159,1159,1157,1157,1159,1159,1159,1159,1159,1159,1159,1162,1162,1162,1162,1164,1164,1164,1164,1164,1164,1162,1162,1162,1162,1162,1162,1162,1162,1162,1162,1162,1162,1164,1164,1164,1164,1164,1166,1166,1166,1166,1170,1170,1173,1173,1173,1175,1175,1177,1177,1177,1179,1184,1184,1186,1188,1188,1191,1191,1195,1200,1200,1204,1211,1211,1216,1223,1223,1228,1236,1236,1241,1241,1246,1248,1248,1253,1256,1256,1258,1261,1258,1258,1258,1256,1256,1253,1248,1248,1241,1241,1236,1233,1233,1228,1223,1223,1221,1221,1219,1219,1219,1219,1219,1219,1219,1219,1216,1214,1214,1214,1211,1211,1209,1209,1207,1207,1207,1202,1200,1200,1197,1197,1195,1193,1193,1188,1186,1186,1181,1181,1179,1177,1177,1173,1170,1170,1168,1168,1164,1162,1162,1159,1157,1157,1157,1157,1157,1157,1157,1157,1157,1159,1159,1159,1159,1164,1166,1166,1168,1170,1170,1170,1173,1173,1173,1173,1173,1173,1168,1166,1166,1164,1164,1159,1157,1157,1153,1151,1149,1144,1144,1140,1136,1136,1132,1132,1128,1124,1124,1120,1118,1118,1116,1116,1112,1112,1112,1110,1108,1108,1104,1104,1102,1100,1100,1096,1096,1094,1090,1090,1088,1086,1086,1084,1084,1084,1084,1084,1082,1082,1082,1082,1082,1081,1081,1082,1081,1081,1081,1081,1081,1079,1079,1079,1077,1075,1075,1073,1073,1071,1069,1069,1068,1066,1066,1064,1064,1064,1064,1064,1062,1062,1062,1060,1060,1060,1058,1058,1058,1057,1057,1057,1057,1055,1055,1055,1055,1055,1055,1055,1055,1055,1055,1055,1053,1053,1053,1051,1051,1050,1050,1050,1048,1046,1046,1042,1042,1041,1037,1037,1034,1032,1032,1027,1027,1025,1022,1022,1018,1018,1015,1012,1012,1010,1009,1009,1005,1005,1004,1002,1002,1000,1000,999,999,999,999,999,999,997,997,997,999,999,997,997,997,997,997,997,997,997,997,997,997,997,997,997,997,997,996,996,996,996,994,994,992,992,991,991,991,989,989,988,988,988,988,986,986,986,986,985,983,983,981,981,981,980,980,978,978,978,978,977,977,977,977,977,975,975,975,974,974,972,972,971,969,969,968,968,966,963,963,962,960,960,959,959,959,957,957,956,956,956,956,956,956,956,956,956,957,959,959,960,960,962,965,965,965,966,966,969,2819,2819,2819,2807,2807,2807,2794,2794,2781,2781,2781,2781,2781,2781,2781,2781,2781,2781,2781,2794,2807
2940,2940,2954,2954,2968,2982,2982,2982,2996,2996,3011,3011,3011,3011,3011,2996,2996,2996,2982,2982,2968,2954,2954,2940,2940,2926,2926,2926,2912,2898,2898,2898,2898,2898,2885,2885,2885,2872,2872,2872,2858,2858,2858,2858,2858,2858,2858,2832,2832,2832,2819,2819,2807,2781,2781,2781,2769,2769,2769,2769,2769,2757,2757,2757,2757,2757,2757,2757,2757,2745,2745,2745,2732,2732,2720,2720,2720,2709,2697,2697,2697,2697,2697,2697,2709,2709,2709,2709,2709,2709,2709,2709,2709,2709,2697,2697,2697,2697,2697,2697,2697,2697,2685,2685,2685,2685,2685,2685,2697,2697,2697,2697,2697,2697,2697,2697,2709,2709,2709,2709,2709,2720,2732,2732,2732,2745,2745,2757,2757,2757,2769,2769,2769,2781,2781,2781,2781,2781,2781,2794,2794,2794,2794,2807,2807,2807,2807,0,0,0,0,0,0,0,0,0,0,0,0,0,0,0,0,0,0,0,0,0,0,0,0,0,0,0,0,0,1155,1155,1155,1155,1157,1157,1157,1157,1157,1157,1157,1159,1162,1159,1159,1159,1159,1159,1159,1159,1159,1157,1157,1159,1159,1159,1159,1159,1162,1162,1162,1162,1162,1164,1166,1166,1166,1166,1164,1164,1164,1164,1164,1164,1164,1164,1164,1164,1164,1164,1164,1164,1164,1166,1166,1166,1166,1166,1168,1168,1175,1177,1177,1181,1186,1186,1186,1186,1188,1193,1193,1195,1197,1197,1200,1202,1202,1204,1207,1207,1211,1211,1216,1221,1221,1226,1231,1231,1236,1241,1241,1246,1246,1253,1256,1256,1261,1263,1263,1263,1266,1266,1266,1266,1263,1263,1261,1258,1258,1253,1253,1248,1241,1241,1236,1233,1233,1226,1226,1223,1223,1223,1221,1221,1221,1219,1219,1216,1214,1214,1214,1211,1211,1211,1211,1209,1207,1207,1204,1202,1202,1200,1200,1195,1193,1193,1191,1186,1186,1184,1184,1179,1175,1175,1173,1168,1168,1166,1166,1164,1159,1159,1157,1157,1155,1155,1155,1155,1155,1155,1155,1155,1155,1155,1157,1157,1162,1162,1162,1164,1166,1166,1168,1168,1168,1168,1168,1168,1168,1166,1164,1164,1162,1162,1159,1157,1157,1153,1151,1149,1144,1144,1140,1138,1138,1132,1132,1130,1126,1126,1122,1120,1120,1116,1116,1114,1112,1112,1110,1108,1108,1106,1106,1102,1100,1100,1096,1096,1094,1090,1090,1088,1086,1086,1084,1084,1084,1084,1084,1082,1082,1082,1082,1082,1081,1081,1081,1081,1079,1079,1079,1079,1079,1079,1079,1077,1075,1075,1073,1073,1071,1069,1069,1068,1066,1066,1064,1064,1064,1064,1064,1062,1062,1062,1060,1060,1060,1058,1058,1058,1057,1057,1057,1057,1055,1055,1055,1055,1055,1055,1055,1055,1055,1053,1053,1053,1051,1051,1050,1050,1050,1048,1048,1046,1044,1044,1041,1041,1039,1037,1037,1034,1032,1030,1027,1027,1024,1020,1020,1018,1018,1015,1012,1012,1009,1007,1007,1005,1005,1004,1002,1002,1000,1000,999,999,999,999,997,997,997,997,997,997,997,997,997,997,997,997,996,996,996,996,996,997,997,997,997,996,996,996,996,996,994,994,994,992,992,991,991,991,989,989,988,988,988,988,986,986,986,986,985,983,983,981,980,980,980,980,978,978,978,977,977,977,977,977,975,975,975,974,972,972,971,971,969,969,969,968,968,966,963,963,962,960,960,959,959,959,959,959,957,957,957,957,957,957,957,957,957,959,960,960,962,962,965,966,966,968,969,969,969,2832,2819,2819,2819,2819,2807,2794,2794,2781,2781,2781,2781,2781,2781,2781,2781,2781,2781,2781,2807,2807
2940,2940,2954,2954,2968,2982,2982,2982,2982,2982,2996,2996,2996,2996,2982,2982,2982,2968,2954,2954,2954,2940,2940,2926,2926,2912,2898,2898,2898,2885,2885,2872,2872,2872,2872,2872,2858,2858,2858,2845,2845,2845,2845,2845,2845,2845,2845,2832,2819,2819,2819,2819,2807,2781,2781,2781,2769,2769,2769,2769,2769,2757,2757,2757,2757,2757,2757,2757,2757,2745,2745,2745,2732,2732,2720,2720,2720,2720,2709,2709,2709,2709,2709,2709,2709,2709,2709,2709,2709,2709,2709,2709,2709,2709,2709,2709,2709,2697,2697,2697,2697,2697,2697,2697,2697,2697,2697,2697,2697,2697,2697,2697,2697,2697,2697,2697,2709,2709,2709,2709,2709,2720,2720,2720,2732,2745,2745,2745,2757,2757,2757,2757,2757,2769,2769,2769,2781,2781,2781,2794,2794,2794,2794,2807,2807,2807,2807,0,0,0,0,0,0,0,0,0,0,0,0,0,0,0,0,0,0,0,0,0,0,0,0,0,0,0,0,0,1155,1155,1155,1155,1157,1157,1157,1157,1157,1157,1157,1159,1159,1159,1159,1159,1159,1159,1159,1159,1159,1157,1157,1159,1159,1159,1159,1159,1162,1162,1162,1162,1162,1164,1166,1166,1166,1166,1164,1164,1164,1164,1164,1164,1164,1164,1164,1164,1164,1164,1164,1164,1164,1166,1166,1166,1166,1166,1168,1168,1175,1177,1177,1181,1186,1186,1186,1186,1188,1193,1193,1195,1197,1197,1200,1202,1202,1204,1207,1207,1211,1211,1216,1221,1221,1226,1231,1231,1236,1241,1241,1246,1246,1253,1256,1256,1261,1263,1263,1263,1266,1266,1266,1266,1263,1263,1261,1258,1258,1253,1253,1248,1241,1241,1236,1236,1238,1233,1233,1228,1226,1226,1223,1221,1221,1219,1219,1219,1216,1216,1214,1211,1211,1211,1211,1209,1207,1207,1204,1202,1202,1200,1200,1195,1193,1193,1191,1186,1186,1184,1184,1179,1175,1175,1173,1168,1168,1166,1166,1164,1159,1159,1157,1157,1155,1155,1155,1155,1155,1155,1155,1155,1155,1155,1157,1157,1162,1162,1162,1164,1166,1166,1168,1168,1168,1168,1168,1168,1168,1166,1164,1164,1162,1162,1159,1157,1157,1153,1153,1149,1144,1144,1142,1138,1138,1134,1134,1130,1126,1126,1124,1120,1120,1118,1118,1116,1114,1114,1112,1108,1108,1106,1106,1104,1100,1100,1096,1096,1094,1092,1092,1088,1086,1086,1086,1086,1084,1084,1084,1084,1082,1082,1082,1082,1082,1081,1081,1081,1079,1079,1079,1079,1079,1079,1079,1077,1075,1075,1073,1073,1073,1071,1071,1069,1068,1068,1066,1066,1066,1066,1066,1064,1064,1064,1062,1062,1060,1060,1060,1058,1058,1058,1057,1057,1057,1055,1055,1055,1055,1055,1055,1055,1055,1053,1053,1053,1051,1051,1050,1050,1048,1046,1046,1044,1042,1042,1041,1041,1037,1036,1036,1032,1032,1030,1027,1027,1024,1020,1020,1018,1018,1015,1012,1012,1009,1007,1007,1005,1005,1004,1002,1002,1000,1000,999,999,999,999,997,997,997,997,996,996,996,996,996,996,996,996,996,996,996,996,996,996,996,996,996,996,996,996,994,994,994,994,992,992,992,991,989,989,988,988,988,988,988,986,986,986,985,985,983,981,981,980,980,980,978,978,977,977,977,975,975,975,974,974,974,972,972,972,971,971,971,971,969,968,968,966,966,966,965,965,965,962,962,960,960,960,959,959,957,957,957,957,957,957,957,957,957,959,960,960,962,962,965,966,966,968,969,969,969,2832,2819,2819,2807,2807,2807,2794,2794,2781,2781,2781,2781,2781,2781,2781,2781,2781,2781,2781,2807,2807
2954,2954,2968,2968,2968,2982,2982,2982,2982,2982,2996,2996,2996,2996,2982,2982,2982,2968,2954,2954,2954,2940,2940,2926,2926,2912,2898,2898,2898,2885,2885,2872,2872,2872,2872,2872,2858,2858,2858,2845,2845,2845,2845,2845,2845,2845,2845,2832,2819,2819,2819,2819,2807,2794,2794,2781,2769,2769,2769,2769,2769,2757,2757,2757,2757,2757,2757,2757,2757,2757,2757,2745,2732,2732,2732,2720,2720,2720,2709,2709,2709,2709,2709,2709,2709,2709,2709,2709,2709,2709,2709,2709,2709,2709,2709,2709,2709,2709,2709,2697,2697,2697,2697,2697,2697,2697,2697,2697,2697,2697,2697,2697,2697,2697,2697,2697,2709,2709,2709,2709,2709,2720,2720,2720,2732,2745,2745,2745,2757,2757,2757,2757,2757,2769,2769,2769,2781,2781,2781,2794,2794,2794,2794,2807,2807,2807,2807,0,0,0,0,0,0,0,0,0,0,0,0,0,0,0,0,0,0,0,0,0,0,0,0,0,0,0,0,0,1157,1157,1157,1159,1159,1157,1157,1157,1159,1159,1159,1159,1159,1159,1162,1162,1159,1159,1159,1159,1159,1159,1159,1159,1159,1162,1162,1162,1162,1162,1164,1164,1164,1168,1168,1168,1170,1170,1168,1168,1168,1168,1168,1166,1166,1166,1166,1166,1166,1166,1166,1166,1168,1168,1168,1168,1168,1170,1177,1177,1181,1186,1186,1193,1197,1197,1202,1204,1204,1207,1207,1209,1211,1211,1214,1216,1216,1216,1219,1219,1223,1223,1226,1231,1231,1236,1238,1238,1243,1248,1248,1253,1258,1258,1263,1263,1266,1268,1268,1271,1274,1274,1271,1271,1271,1274,1268,1266,1266,1261,1256,1256,1251,1251,1243,1238,1238,1233,1233,1228,1226,1226,1223,1221,1221,1219,1219,1219,1216,1216,1214,1211,1211,1211,1211,1209,1207,1207,1204,1202,1202,1200,1200,1195,1193,1193,1191,1186,1186,1184,1184,1179,1175,1175,1173,1168,1168,1166,1166,1162,1159,1159,1157,1157,1155,1155,1155,1155,1153,1153,1153,1153,1153,1153,1155,1155,1157,1159,1159,1159,1162,1162,1164,1164,1164,1164,1164,1164,1164,1162,1162,1159,1157,1157,1157,1155,1155,1151,1151,1149,1144,1144,1142,1138,1138,1134,1134,1130,1126,1126,1124,1120,1120,1118,1118,1116,1114,1114,1112,1108,1108,1106,1106,1104,1100,1100,1096,1096,1094,1092,1092,1088,1086,1086,1086,1086,1084,1084,1084,1084,1082,1082,1082,1082,1082,1081,1081,1079,1079,1079,1079,1079,1077,1077,1077,1077,1075,1075,1073,1073,1073,1071,1071,1069,1068,1068,1066,1066,1066,1066,1066,1064,1064,1064,1062,1062,1060,1060,1060,1058,1058,1058,1057,1057,1057,1055,1055,1055,1055,1055,1055,1055,1053,1053,1053,1051,1050,1050,1050,1050,1048,1046,1046,1044,1042,1042,1041,1041,1037,1036,1036,1032,1032,1030,1027,1027,1024,1020,1020,1018,1018,1015,1012,1012,1010,1007,1007,1005,1005,1004,1002,1002,1000,1000,999,999,999,999,997,997,997,997,996,996,996,996,996,996,996,996,996,996,996,996,996,996,996,996,996,996,996,996,994,994,994,994,992,992,992,991,989,989,988,988,988,988,988,986,986,986,985,985,983,981,981,980,980,980,978,978,977,977,977,975,975,975,974,974,974,972,972,972,971,971,971,971,969,968,968,966,966,966,965,965,965,962,962,960,960,960,959,959,959,957,957,957,957,957,957,959,959,960,962,962,965,965,966,968,968,969,971,971,972,2832,2819,2819,2807,2807,2807,2794,2794,2781,2781,2781,2781,2781,2781,2781,2781,2781,2794,2794,2807,2819
2954,2954,2954,2954,2968,2968,2968,2968,2982,2982,2968,2968,2968,2968,2954,2954,2954,2954,2940,2940,2926,2912,2912,2912,2912,2898,2885,2885,2885,2872,2872,2858,2858,2858,2845,2845,2832,2832,2832,2832,2832,2832,2832,2832,2832,2832,2832,2832,2819,2819,2819,2819,2807,2781,2781,2781,2769,2769,2769,2769,2769,2757,2757,2757,2745,2745,2745,2757,2757,2757,2757,2745,2732,2732,2732,2720,2720,2720,2709,2709,2709,2709,2709,2709,2709,2709,2709,2709,2709,2709,2709,2709,2709,2709,2709,2709,2709,2709,2709,2697,2697,2697,2697,2697,2697,2697,2697,2697,2697,2697,2697,2697,2697,2697,2697,2697,2697,2709,2709,2709,2709,2709,2720,2720,2720,2732,2732,2745,2745,2745,2757,2757,2757,2757,2757,2769,2769,2769,2781,2794,2794,2794,2794,2807,2807,2807,2807,0,2819,2819,0,0,0,0,0,0,0,0,0,0,0,0,0,0,0,0,0,0,0,0,0,0,0,0,0,0,1159,1159,1159,1159,1159,1159,1159,1159,1162,1162,1162,1162,1162,1162,1162,1162,1162,1162,1162,1162,1162,1162,1162,1164,1164,1164,1164,1164,1166,1166,1166,1168,1168,1170,1173,1173,1173,1173,1170,1170,1170,1170,1170,1170,1170,1170,1170,1170,1170,1170,1170,1170,1170,1170,1170,1170,1170,1175,1181,1181,1188,1197,1197,1204,1209,1209,1211,1219,1219,1221,1226,1226,1226,1226,1228,1231,1231,1231,1233,1233,1236,1238,1238,1241,1241,1243,1248,1248,1251,1256,1256,1261,1266,1266,1268,1268,1271,1274,1274,1276,1279,1279,1279,1279,1276,1276,1276,1274,1274,1268,1263,1263,1258,1258,1251,1243,1243,1238,1238,1233,1228,1228,1226,1223,1223,1221,1221,1219,1216,1216,1214,1214,1214,1211,1211,1209,1207,1207,1204,1202,1202,1200,1200,1197,1193,1193,1191,1188,1188,1184,1184,1179,1177,1177,1173,1168,1168,1166,1166,1162,1159,1159,1157,1157,1155,1155,1155,1155,1153,1153,1153,1153,1153,1153,1155,1155,1155,1155,1155,1157,1157,1157,1157,1157,1159,1159,1159,1159,1159,1157,1157,1157,1155,1155,1153,1151,1151,1149,1149,1147,1142,1142,1140,1138,1138,1134,1134,1130,1128,1128,1124,1120,1120,1118,1118,1116,1114,1114,1112,1110,1110,1106,1106,1104,1102,1102,1098,1098,1094,1092,1092,1090,1088,1088,1086,1086,1084,1084,1084,1084,1082,1082,1082,1082,1082,1081,1081,1079,1079,1079,1079,1079,1077,1077,1077,1077,1075,1075,1075,1075,1073,1073,1073,1069,1069,1069,1068,1068,1068,1066,1066,1066,1066,1066,1064,1064,1064,1062,1062,1060,1060,1060,1057,1057,1057,1057,1057,1055,1055,1055,1053,1053,1053,1051,1051,1051,1050,1050,1048,1048,1046,1046,1046,1042,1041,1041,1039,1039,1037,1036,1036,1032,1032,1030,1027,1027,1024,1020,1020,1018,1018,1015,1012,1012,1010,1007,1007,1005,1005,1004,1002,1002,1000,1000,999,999,999,997,997,997,996,996,996,996,996,996,996,996,994,994,994,994,994,994,994,994,994,994,994,994,994,994,994,994,992,992,992,991,991,989,989,989,988,988,986,986,986,985,985,985,983,983,981,980,980,978,977,977,977,977,975,974,974,974,972,972,972,972,972,971,971,971,971,969,968,968,968,966,966,965,965,965,963,963,963,962,962,960,960,960,959,959,959,957,957,957,957,957,957,959,959,960,962,962,965,965,966,968,968,969,971,971,972,2832,2819,2819,2807,2807,2807,2781,2781,2781,2781,2781,2781,2781,2781,2781,2781,2781,2794,2794,2807,2819
2954,2954,2954,2954,2968,2968,2968,2968,2982,2982,2968,2968,2968,2968,2954,2954,2954,2954,2940,2940,2926,2912,2912,2912,2912,2898,2885,2885,2885,2872,2872,2858,2858,2858,2845,2845,2819,2819,2819,2819,2819,2819,2819,2819,2819,2819,2819,2807,2807,2807,2794,2794,2794,2781,2781,2769,2769,2769,2757,2757,2757,2757,2757,2745,2745,2745,2745,2745,2757,2745,2745,2745,2745,2745,2732,2720,2720,2720,2720,2720,2720,2720,2709,2709,2709,2709,2709,2720,2720,2720,2720,2709,2709,2709,2709,2709,2709,2709,2709,2697,2697,2697,2697,2697,2685,2685,2685,2685,2685,2685,2697,2697,2685,2685,2685,2685,2697,2697,2697,2697,2697,2709,2709,2709,2720,2720,2720,2732,2745,2745,2745,2745,2745,2757,2757,2769,2769,2769,2781,2794,2794,2794,2794,2807,2807,2807,2807,0,2819,2819,0,0,0,0,0,0,0,0,0,0,0,0,0,0,0,0,0,0,0,0,0,0,0,0,0,0,1159,1159,1159,1159,1159,1159,1159,1159,1162,1162,1162,1162,1162,1162,1162,1162,1162,1162,1162,1162,1162,1162,1162,1164,1164,1164,1164,1164,1166,1166,1166,1168,1168,1170,1173,1173,1173,1173,1170,1170,1170,1170,1170,1170,1170,1170,1170,1170,1170,1170,1170,1170,1170,1170,1170,1170,1170,1175,1181,1181,1188,1197,1197,1204,1209,1209,1211,1219,1219,1221,1226,1226,1226,1226,1228,1231,1231,1231,1233,1233,1236,1238,1238,1241,1241,1243,1248,1248,1251,1256,1256,1261,1266,1266,1268,1268,1271,1274,1274,1276,1279,1279,1279,1279,1276,1276,1276,1274,1274,1268,1263,1263,1258,1258,1251,1243,1243,1238,1238,1233,1228,1228,1226,1223,1223,1221,1221,1219,1216,1216,1214,1214,1214,1211,1211,1209,1207,1207,1204,1202,1202,1200,1200,1197,1193,1193,1191,1188,1188,1184,1184,1179,1177,1177,1173,1168,1168,1166,1166,1162,1159,1159,1157,1157,1155,1155,1155,1153,1153,1153,1153,1153,1153,1153,1155,1155,1155,1155,1155,1157,1157,1157,1157,1157,1159,1159,1159,1159,1159,1157,1157,1157,1155,1155,1153,1151,1151,1149,1149,1147,1142,1142,1140,1138,1138,1134,1134,1132,1128,1128,1124,1122,1122,1120,1120,1116,1116,1116,1114,1110,1110,1108,1108,1106,1102,1102,1100,1100,1098,1092,1092,1090,1088,1088,1086,1086,1084,1084,1084,1084,1084,1084,1082,1082,1082,1081,1081,1081,1079,1079,1079,1079,1077,1077,1077,1077,1077,1077,1075,1075,1075,1075,1075,1073,1071,1071,1069,1069,1069,1068,1068,1068,1066,1066,1066,1066,1064,1062,1062,1062,1060,1060,1058,1058,1057,1057,1057,1055,1055,1055,1053,1053,1053,1051,1051,1051,1050,1050,1048,1048,1046,1046,1046,1042,1041,1041,1039,1039,1037,1036,1036,1032,1032,1030,1027,1027,1024,1020,1020,1018,1018,1015,1012,1012,1010,1007,1007,1005,1005,1004,1002,1002,1000,1000,999,999,999,997,997,997,996,996,996,996,996,996,996,996,994,994,994,994,994,994,992,992,992,992,992,992,992,992,991,991,991,991,991,989,989,988,988,988,986,986,985,983,983,983,981,981,981,981,980,978,978,977,977,977,975,975,974,974,974,972,972,972,971,971,971,969,969,969,969,968,966,966,966,965,965,963,963,963,962,962,962,960,960,960,960,959,959,959,959,959,959,959,959,959,959,960,960,962,965,965,966,966,968,969,969,971,972,972,974,2832,2819,2819,2807,2807,2807,2781,2781,2781,2781,2781,2781,2781,2781,2781,2781,2781,2794,2794,2794,2819
2954,2954,2954,2954,2968,2968,2968,2968,2982,2982,2968,2968,2968,2968,2954,2954,2954,2954,2940,2940,2926,2912,2912,2912,2912,2898,2885,2885,2885,2872,2872,2858,2858,2845,2832,2832,2819,2819,2819,2819,2819,2819,2819,2819,2819,2819,2819,2807,2807,2807,2794,2794,2794,2781,2781,2769,2769,2769,2757,2757,2757,2757,2757,2745,2745,2745,2745,2745,2757,2745,2745,2745,2745,2745,2732,2720,2720,2720,2720,2720,2720,2720,2709,2709,2709,2709,2709,2720,2720,2720,2720,2709,2709,2709,2709,2709,2709,2709,2709,2697,2697,2697,2697,2697,2685,2685,2685,2685,2685,2685,2697,2697,2685,2685,2685,2685,2697,2697,2697,2697,2697,2709,2709,2709,2720,2720,2720,2732,2745,2745,2745,2745,2745,2757,2757,2769,2769,2769,2781,2794,2794,2794,2794,2807,2807,2807,2807,0,2819,2819,0,0,0,0,0,0,0,0,0,0,0,0,0,0,0,0,0,0,0,0,0,0,0,0,0,0,0,0,1162,1162,1162,1162,1162,1162,1162,1162,1162,1162,1162,1162,1162,1162,1162,1162,1162,1164,1164,1164,1164,1166,1166,1168,1168,1168,1168,1168,1170,1170,1170,1173,1173,1173,1173,1173,1173,1173,1173,1173,1173,1173,1173,1173,1170,1170,1170,1170,1170,1170,1170,1173,1173,1173,1173,1179,1188,1188,1195,1204,1204,1209,1219,1219,1226,1231,1231,1233,1236,1236,1238,1238,1241,1243,1243,1243,1246,1246,1246,1248,1248,1251,1251,1253,1256,1256,1258,1261,1261,1266,1271,1271,1274,1274,1276,1279,1279,1282,1284,1284,1284,1284,1282,1282,1282,1276,1276,1274,1268,1268,1261,1261,1256,1248,1248,1243,1243,1236,1233,1233,1231,1228,1228,1223,1223,1219,1219,1219,1216,1214,1214,1211,1211,1209,1207,1207,1204,1202,1202,1200,1200,1197,1195,1195,1191,1188,1188,1184,1184,1181,1177,1177,1173,1168,1168,1166,1166,1164,1162,1162,1157,1157,1157,1155,1155,1153,1153,1153,1153,1153,1153,1153,1153,1153,1153,1153,1153,1155,1155,1155,1155,1155,1155,1155,1155,1155,1155,1155,1155,1153,1151,1151,1151,1149,1149,1147,1147,1144,1142,1142,1140,1138,1138,1134,1134,1132,1128,1128,1124,1122,1122,1120,1120,1116,1116,1116,1114,1110,1110,1108,1108,1106,1102,1102,1100,1100,1098,1092,1092,1090,1088,1088,1086,1086,1084,1084,1084,1084,1084,1084,1082,1082,1082,1081,1081,1081,1079,1079,1079,1079,1077,1077,1077,1077,1077,1077,1075,1075,1075,1075,1075,1073,1071,1071,1069,1069,1069,1068,1068,1068,1066,1066,1066,1066,1064,1062,1062,1062,1060,1060,1058,1058,1057,1057,1057,1055,1055,1055,1053,1053,1053,1051,1051,1051,1050,1050,1048,1048,1046,1044,1044,1042,1041,1041,1039,1039,1037,1036,1036,1032,1032,1030,1027,1027,1024,1020,1020,1018,1018,1015,1012,1012,1010,1007,1007,1005,1005,1004,1002,1002,1000,1000,999,999,999,997,997,997,996,996,996,994,994,994,994,994,994,994,992,992,992,992,992,992,992,992,992,992,992,992,991,991,991,991,991,989,989,988,988,988,986,986,985,983,983,983,981,981,981,981,980,978,978,977,977,977,975,975,974,974,974,972,972,972,971,971,971,969,969,969,969,968,966,966,966,965,965,963,963,963,962,962,962,960,960,960,960,959,959,959,959,959,959,959,959,959,960,963,963,965,966,966,968,968,971,972,972,974,974,974,975,2832,2819,2819,2807,2807,2807,2781,2781,2781,2781,2781,2781,2781,2781,2781,2781,2781,2794,2794,2794,2819
2940,2940,2940,2940,2954,2954,2954,2968,2968,2968,2968,2968,2968,2968,2968,2968,2968,2954,2954,2954,2940,2926,2926,2912,2912,2898,2898,2898,2872,2858,2858,2845,2845,2819,2807,2807,2807,2794,2794,2794,2794,2794,2794,2794,2794,2794,2794,2794,2794,2794,2781,2781,2781,2769,2769,2769,2757,2757,2757,2757,2757,2757,2757,2745,2745,2745,2745,2745,2745,2745,2745,2745,2732,2732,2732,2720,2720,2720,2720,2709,2709,2709,2709,2697,2697,2697,2709,2709,2709,2709,2709,2697,2697,2697,2697,2697,2697,2697,2697,2697,2697,2697,2685,2685,2685,2685,2685,2685,2685,2685,2685,2685,2685,2685,2685,2685,2685,2697,2697,2697,2697,2697,2709,2709,2709,2720,2720,2720,2732,2732,2745,2745,2745,2757,2757,2769,2769,2769,2769,2794,2794,2794,2794,2794,2807,2807,2807,0,2819,2819,0,0,0,0,0,0,0,0,0,0,0,0,0,0,0,0,0,0,0,0,0,0,0,0,0,0,1162,1162,1162,1162,1162,1162,1162,1162,1162,1162,1162,1162,1162,1162,1162,1162,1162,1162,1162,1164,1164,1164,1164,1166,1166,1168,1168,1168,1168,1168,1170,1170,1170,1173,1173,1173,1173,1173,1173,1173,1173,1173,1173,1173,1173,1173,1173,1173,1173,1173,1173,1173,1173,1173,1173,1175,1175,1179,1188,1188,1195,1207,1207,1216,1223,1223,1231,1238,1238,1243,1246,1246,1248,1251,1251,1253,1253,1256,1256,1256,1256,1258,1258,1258,1258,1261,1261,1261,1263,1266,1266,1271,1274,1274,1276,1276,1279,1282,1282,1284,1284,1284,1287,1287,1284,1284,1282,1279,1279,1276,1274,1274,1266,1266,1261,1256,1256,1248,1248,1243,1238,1238,1233,1231,1231,1226,1226,1221,1219,1219,1216,1214,1214,1211,1211,1209,1207,1207,1204,1204,1204,1202,1202,1200,1197,1197,1193,1188,1188,1186,1186,1181,1177,1177,1175,1170,1170,1166,1166,1164,1162,1162,1159,1159,1157,1155,1155,1155,1153,1153,1153,1153,1153,1153,1153,1153,1153,1153,1153,1155,1155,1155,1155,1155,1155,1155,1155,1155,1155,1155,1155,1153,1151,1151,1151,1149,1149,1147,1147,1144,1142,1142,1140,1138,1138,1134,1134,1132,1128,1128,1126,1124,1124,1120,1120,1118,1116,1116,1116,1114,1114,1110,1110,1108,1104,1104,1102,1102,1100,1096,1096,1092,1090,1090,1088,1088,1086,1086,1086,1084,1084,1084,1084,1084,1082,1082,1082,1081,1079,1079,1079,1079,1079,1077,1077,1077,1077,1077,1077,1077,1077,1075,1075,1075,1073,1073,1073,1073,1071,1071,1071,1069,1069,1069,1068,1068,1066,1064,1064,1062,1060,1060,1060,1060,1058,1057,1057,1055,1055,1055,1053,1053,1053,1051,1051,1051,1050,1050,1048,1048,1046,1044,1044,1042,1039,1039,1037,1037,1036,1034,1034,1032,1032,1029,1027,1027,1025,1022,1022,1018,1018,1017,1014,1014,1010,1007,1007,1005,1005,1004,1002,1002,1000,1000,999,999,999,997,997,997,996,996,994,994,994,994,992,992,992,992,992,991,991,991,991,991,991,991,991,989,989,989,989,989,989,989,989,988,988,986,985,985,983,983,983,983,983,981,980,980,980,980,978,977,977,975,975,975,974,974,972,972,972,971,971,971,971,971,969,968,968,968,968,966,966,966,965,963,963,963,963,962,962,962,960,959,959,959,959,959,959,959,959,959,959,959,959,959,960,963,963,965,966,966,968,968,971,972,972,974,974,974,975,2819,2819,2819,2807,2807,2794,2781,2781,2781,2781,2781,2781,2781,2781,2781,2781,2781,2794,2794,2794,2807
2940,2940,2940,2940,2954,2954,2954,2968,2968,2968,2968,2968,2968,2968,2968,2968,2968,2968,2954,2954,2954,2940,2940,2926,2926,2898,2898,2898,2872,2858,2858,2845,2845,2819,2807,2807,2807,2794,2794,2794,2794,2794,2794,2794,2794,2794,2794,2794,2794,2794,2781,2781,2781,2769,2769,2769,2757,2757,2757,2757,2757,2757,2757,2745,2745,2745,2745,2745,2745,2745,2745,2745,2732,2732,2732,2720,2720,2720,2720,2709,2709,2709,2709,2697,2697,2697,2697,2697,2697,2697,2697,2697,2697,2685,2685,2685,2685,2685,2685,2685,2685,2685,2685,2685,2685,2685,2685,2685,2685,2685,2685,2685,2685,2685,2685,2685,2685,2685,2685,2697,2697,2697,2697,2697,2709,2709,2709,2720,2720,2720,2732,2732,2745,2757,2757,2757,2769,2769,2769,2781,2781,2781,2781,2794,2794,2794,2807,2807,2807,2807,2807,0,0,0,0,0,0,0,0,0,0,0,0,0,0,0,0,0,0,0,0,0,0,0,0,1164,1162,1162,1162,1162,1162,1162,1162,1162,1162,1162,1162,1162,1164,1164,1164,1164,1164,1164,1164,1166,1166,1166,1168,1170,1170,1170,1170,1170,1170,1170,1173,1173,1173,1175,1175,1175,1175,1175,1173,1173,1173,1173,1173,1173,1173,1173,1173,1173,1173,1173,1173,1173,1173,1173,1173,1175,1175,1179,1188,1188,1195,1207,1207,1216,1223,1223,1231,1238,1238,1243,1246,1246,1248,1251,1251,1253,1253,1256,1256,1256,1256,1258,1258,1258,1258,1261,1261,1261,1263,1266,1266,1271,1274,1274,1276,1276,1279,1282,1282,1284,1284,1284,1287,1287,1284,1284,1282,1279,1279,1276,1274,1274,1266,1266,1261,1256,1256,1248,1248,1243,1238,1238,1233,1231,1231,1226,1226,1221,1219,1219,1216,1214,1214,1211,1211,1209,1207,1207,1204,1204,1204,1202,1202,1200,1197,1197,1193,1188,1188,1186,1186,1181,1177,1177,1175,1170,1170,1166,1166,1164,1162,1162,1159,1159,1157,1155,1155,1155,1153,1153,1153,1153,1151,1151,1153,1153,1153,1153,1153,1153,1153,1153,1153,1153,1153,1153,1153,1153,1153,1153,1153,1151,1151,1151,1149,1147,1147,1147,1147,1144,1142,1142,1140,1136,1136,1134,1134,1132,1128,1128,1126,1124,1124,1120,1120,1118,1116,1116,1116,1114,1114,1110,1110,1108,1104,1104,1104,1104,1102,1100,1100,1096,1094,1094,1090,1090,1090,1088,1088,1086,1086,1086,1084,1084,1084,1082,1082,1081,1081,1081,1079,1079,1079,1079,1079,1077,1077,1079,1077,1077,1077,1077,1077,1075,1075,1075,1075,1075,1073,1071,1071,1071,1069,1069,1069,1069,1068,1066,1066,1064,1062,1062,1060,1060,1058,1057,1057,1055,1055,1055,1053,1053,1053,1051,1051,1051,1050,1050,1048,1048,1046,1044,1044,1042,1039,1039,1037,1037,1036,1034,1034,1032,1032,1029,1027,1027,1025,1022,1022,1018,1018,1017,1014,1014,1010,1009,1009,1005,1005,1004,1002,1002,1000,1000,999,999,999,997,997,997,996,996,994,994,994,994,992,992,992,992,992,991,991,991,991,991,991,991,991,989,989,989,989,989,989,989,989,988,988,986,985,985,983,983,983,983,983,981,980,980,980,980,978,977,977,975,975,975,974,974,972,972,972,971,971,971,971,971,969,968,968,968,968,966,966,966,965,963,963,963,963,962,962,962,959,959,959,959,959,959,959,959,959,959,960,960,960,960,963,965,965,966,968,968,971,971,972,974,974,974,975,975,977,2819,2819,2819,2807,2807,2794,2781,2781,2781,2781,2781,2781,2781,2781,2781,2781,2781,2781,2781,2781,2794
2940,2940,2940,2940,2954,2954,2954,2968,2968,2968,2968,2968,2968,2968,2968,2968,2968,2968,2954,2954,2954,2940,2940,2926,2926,2898,2885,2885,2858,2832,2832,2819,2819,2807,2794,2794,2781,2769,2769,2769,2769,2769,2769,2769,2769,2769,2769,2769,2769,2769,2757,2757,2757,2757,2757,2745,2745,2745,2745,2745,2745,2732,2732,2732,2732,2732,2732,2732,2732,2732,2732,2732,2720,2720,2720,2720,2720,2709,2709,2709,2709,2709,2697,2697,2697,2697,2697,2697,2697,2697,2697,2697,2697,2685,2685,2685,2685,2685,2685,2685,2685,2685,2685,2685,2685,2685,2685,2685,2685,2685,2685,2685,2685,2685,2685,2685,2685,2685,2685,2697,2697,2697,2697,2697,2709,2709,2709,2720,2720,2720,2732,2732,2745,2757,2757,2757,2769,2769,2769,2781,2781,2781,2781,2794,2794,2794,2807,2807,2807,2807,2807,0,0,0,0,0,0,0,0,0,0,0,0,0,0,0,0,0,0,0,0,0,0,0,0,1164,1164,1164,1164,1164,1164,1164,1164,1164,1164,1164,1164,1164,1164,1164,1166,1166,1166,1166,1166,1168,1168,1168,1170,1173,1173,1173,1173,1173,1173,1173,1175,1177,1175,1175,1175,1175,1175,1175,1173,1173,1173,1175,1175,1175,1175,1175,1175,1175,1175,1175,1175,1175,1175,1175,1175,1177,1177,1181,1188,1188,1197,1207,1207,1216,1226,1226,1233,1243,1243,1248,1253,1253,1256,1258,1258,1261,1261,1263,1263,1263,1263,1263,1263,1266,1266,1266,1268,1268,1268,1271,1271,1274,1276,1276,1279,1279,1282,1282,1282,1282,1284,1284,1284,1287,1287,1287,1282,1282,1282,1276,1274,1274,1268,1268,1263,1256,1256,1251,1251,1243,1238,1238,1233,1231,1231,1226,1226,1223,1219,1219,1219,1214,1214,1211,1211,1209,1207,1207,1207,1204,1204,1204,1204,1200,1197,1197,1195,1191,1191,1188,1188,1184,1179,1179,1175,1173,1173,1168,1168,1166,1164,1164,1162,1162,1159,1157,1157,1155,1153,1153,1153,1153,1151,1151,1151,1151,1149,1149,1149,1151,1151,1151,1151,1151,1151,1151,1151,1151,1151,1151,1151,1149,1147,1147,1147,1144,1144,1144,1144,1142,1140,1140,1138,1136,1136,1134,1134,1132,1130,1130,1126,1124,1124,1122,1122,1120,1120,1120,1118,1116,1116,1114,1114,1110,1108,1108,1104,1104,1102,1100,1100,1096,1094,1094,1090,1090,1090,1088,1088,1086,1086,1086,1084,1084,1084,1082,1082,1081,1081,1081,1079,1079,1079,1079,1079,1077,1077,1079,1077,1077,1077,1077,1077,1075,1075,1075,1075,1075,1073,1071,1071,1071,1069,1069,1069,1069,1068,1066,1066,1064,1062,1062,1060,1060,1058,1057,1057,1055,1055,1055,1053,1053,1053,1051,1051,1051,1050,1050,1048,1048,1046,1044,1044,1042,1039,1039,1037,1037,1034,1032,1032,1030,1030,1029,1025,1025,1024,1020,1020,1018,1018,1017,1014,1014,1010,1009,1009,1005,1005,1004,1002,1002,1000,1000,999,999,999,997,996,996,996,996,994,994,994,992,992,992,992,992,991,991,991,989,989,989,989,989,989,988,988,988,988,988,986,986,986,985,985,985,983,983,981,981,980,980,980,980,978,978,978,978,977,977,977,975,974,974,974,974,972,972,972,971,971,971,969,969,969,968,968,966,966,966,965,965,963,963,963,962,962,960,960,960,959,959,959,959,959,959,959,959,959,959,960,960,962,962,963,965,965,968,968,968,971,971,974,975,975,975,977,977,978,2832,2819,2819,2807,2807,2794,2781,2781,2781,2781,2781,2781,2781,2781,2781,2781,2781,2781,2781,2781,2794
2926,2926,2940,2940,2940,2954,2954,2954,2968,2968,2968,2968,2968,2982,2968,2968,2968,2968,2954,2954,2954,2940,2940,2926,2926,2898,2872,2872,2845,2832,2819,2794,2794,2781,2757,2757,2745,2745,2745,2745,2745,2745,2745,2745,2745,2757,2757,2745,2745,2745,2745,2745,2745,2745,2745,2745,2745,2745,2745,2745,2745,2732,2732,2732,2720,2720,2720,2732,2732,2732,2732,2732,2720,2720,2720,2720,2720,2709,2709,2709,2709,2709,2685,2685,2685,2685,2674,2674,2674,2674,2674,2674,2674,2674,2674,2674,2674,2674,2674,2674,2674,2674,2685,2685,2685,2685,2685,2685,2685,2674,2674,2674,2674,2674,2674,2674,2685,2685,2685,2685,2685,2697,2697,2697,2709,2709,2709,2720,2720,2720,2732,2732,2745,2757,2757,2757,2769,2769,2769,2781,2781,2781,2781,2794,2794,2794,2794,2794,2794,2807,2807,0,0,0,0,0,0,0,0,0,0,0,0,0,0,0,0,0,0,0,0,0,0,0,0,1164,1164,1164,1164,1164,1164,1164,1164,1164,1164,1164,1164,1164,1164,1164,1166,1166,1166,1166,1166,1168,1168,1168,1170,1173,1173,1173,1173,1173,1173,1173,1175,1177,1175,1175,1175,1175,1175,1175,1173,1173,1173,1175,1175,1175,1175,1175,1175,1175,1175,1175,1175,1175,1175,1175,1175,1177,1177,1181,1188,1188,1197,1207,1207,1216,1226,1226,1233,1243,1243,1248,1253,1253,1256,1258,1258,1261,1261,1263,1263,1263,1263,1263,1263,1266,1266,1266,1268,1268,1268,1271,1271,1274,1276,1276,1279,1279,1282,1282,1282,1282,1284,1284,1284,1287,1287,1287,1284,1282,1282,1276,1274,1274,1271,1271,1263,1256,1256,1251,1251,1246,1241,1241,1236,1233,1233,1226,1226,1223,1219,1219,1219,1214,1214,1211,1211,1209,1207,1207,1207,1204,1204,1204,1204,1202,1197,1197,1195,1193,1193,1188,1188,1186,1181,1181,1177,1173,1173,1170,1170,1168,1166,1166,1164,1162,1162,1157,1157,1157,1155,1155,1153,1153,1151,1151,1151,1151,1149,1149,1149,1151,1151,1151,1151,1151,1151,1151,1151,1151,1151,1151,1151,1149,1147,1147,1147,1144,1144,1144,1144,1142,1140,1140,1138,1136,1136,1134,1134,1132,1130,1130,1128,1126,1126,1126,1126,1124,1122,1122,1120,1120,1120,1118,1118,1114,1112,1112,1108,1106,1106,1104,1104,1100,1098,1098,1096,1096,1094,1092,1092,1090,1088,1088,1086,1086,1084,1084,1084,1082,1081,1081,1081,1081,1079,1079,1079,1077,1077,1079,1079,1079,1077,1077,1079,1077,1077,1077,1075,1075,1075,1073,1073,1071,1071,1071,1069,1069,1069,1068,1068,1064,1064,1064,1060,1060,1058,1057,1057,1057,1055,1055,1053,1053,1053,1051,1051,1051,1050,1050,1048,1048,1046,1044,1044,1042,1039,1039,1036,1036,1034,1030,1030,1029,1029,1027,1025,1025,1022,1020,1020,1017,1017,1015,1012,1012,1010,1009,1007,1005,1005,1004,1002,1002,1000,1000,999,999,999,997,996,996,996,996,994,994,994,992,992,992,991,991,991,989,989,989,988,988,988,988,988,986,986,986,985,985,985,985,985,983,983,981,981,981,980,980,980,978,978,977,977,977,977,977,977,975,975,975,974,974,974,974,972,972,972,971,971,971,969,969,968,968,968,966,966,966,965,965,963,962,962,960,960,960,959,959,959,957,957,957,957,957,957,957,957,959,960,960,962,962,962,965,965,966,968,968,971,971,974,975,975,975,977,977,978,2819,2819,2807,2807,2807,2781,2781,2781,2769,2769,2769,2769,2769,2757,2757,2757,2757,2769,2769,2769,2781
2926,2926,2940,2940,2940,2954,2954,2954,2968,2968,2968,2968,2968,2982,2982,2982,2982,2982,2968,2968,2968,2954,2954,2926,2926,2898,2872,2872,2845,2845,2819,2794,2794,2781,2757,2757,2745,2745,2745,2745,2745,2745,2745,2745,2745,2757,2757,2745,2745,2745,2745,2745,2745,2745,2745,2745,2745,2745,2745,2745,2745,2732,2732,2732,2720,2720,2720,2732,2732,2732,2732,2732,2720,2720,2720,2720,2720,2709,2709,2709,2709,2709,2685,2685,2685,2685,2674,2674,2674,2674,2674,2674,2674,2674,2674,2674,2674,2674,2674,2674,2674,2674,2685,2685,2685,2685,2685,2685,2685,2674,2674,2674,2674,2674,2674,2674,2685,2685,2685,2685,2685,2697,2697,2697,2709,2709,2709,2720,2732,2732,2745,2745,2757,2757,2757,2757,2769,2769,2769,2769,2769,2781,2781,2781,2781,2781,2769,2769,2769,2769,2769,0,0,0,0,0,0,0,0,0,0,0,0,0,0,0,0,0,0,0,0,0,0,1164,1164,1162,1162,1164,1164,1164,1164,1164,1164,1164,1164,1164,1164,1166,1166,1166,1166,1168,1168,1168,1168,1170,1170,1170,1173,1173,1173,1175,1175,1175,1177,1175,1175,1177,1175,1175,1175,1175,1175,1173,1173,1173,1173,1175,1175,1175,1175,1175,1175,1175,1175,1177,1177,1177,1177,1177,1177,1179,1179,1181,1188,1188,1197,1209,1209,1219,1228,1228,1238,1246,1246,1253,1261,1261,1263,1263,1263,1266,1266,1266,1268,1268,1271,1271,1271,1271,1271,1271,1274,1274,1274,1276,1276,1276,1276,1276,1279,1279,1282,1282,1282,1282,1284,1284,1284,1284,1284,1284,1284,1282,1282,1276,1274,1274,1271,1271,1263,1256,1256,1251,1251,1246,1241,1241,1236,1233,1233,1226,1226,1223,1219,1219,1216,1214,1214,1211,1211,1207,1207,1207,1204,1204,1204,1202,1202,1202,1197,1197,1195,1193,1193,1188,1188,1186,1181,1181,1177,1173,1173,1170,1170,1168,1166,1166,1164,1162,1162,1157,1157,1157,1155,1155,1153,1153,1151,1151,1151,1151,1149,1149,1149,1149,1149,1149,1149,1149,1149,1149,1149,1147,1147,1147,1147,1147,1144,1144,1144,1142,1142,1140,1140,1140,1138,1138,1138,1136,1136,1134,1134,1132,1130,1130,1128,1126,1126,1126,1126,1124,1122,1122,1120,1120,1120,1118,1118,1114,1112,1112,1108,1106,1106,1104,1104,1100,1098,1098,1096,1096,1094,1092,1092,1090,1088,1088,1086,1086,1084,1084,1084,1082,1081,1081,1081,1081,1079,1079,1079,1077,1077,1079,1079,1079,1077,1077,1079,1077,1077,1077,1075,1075,1075,1073,1073,1071,1071,1071,1069,1069,1069,1068,1068,1064,1064,1064,1060,1060,1058,1057,1057,1057,1055,1055,1053,1053,1053,1051,1051,1051,1050,1050,1048,1048,1046,1044,1044,1042,1039,1039,1036,1036,1034,1030,1030,1029,1029,1027,1025,1025,1022,1020,1020,1017,1017,1015,1012,1012,1010,1010,1007,1005,1005,1004,1002,1002,1000,1000,999,999,999,997,996,996,996,996,994,994,994,992,992,992,991,991,991,989,989,989,988,988,988,988,988,986,986,986,985,985,985,985,985,983,983,981,981,981,980,980,980,978,978,977,977,977,977,977,977,975,975,975,974,974,974,974,972,972,972,971,971,971,969,969,968,968,968,966,966,966,965,965,963,962,962,960,960,960,959,959,959,957,957,957,957,957,957,957,957,959,960,960,962,962,962,965,965,966,969,969,971,971,975,975,975,978,980,980,0,2819,2819,2807,2807,2807,2781,2781,2781,2769,2769,2769,2769,2769,2757,2757,2757,2757,2769,2769,2769,2781
2926,2926,2940,2940,2940,2954,2954,2954,2968,2968,2968,2968,2968,2982,2982,2982,2982,2982,2968,2968,2968,2954,2954,2926,2926,2885,2858,2858,2819,2819,2794,2769,2769,2757,2745,2745,2720,2720,2720,2720,2720,2720,2720,2732,2732,2732,2732,2732,2732,2732,2732,2732,2732,2732,2732,2732,2732,2732,2732,2745,2732,2732,2732,2720,2720,2720,2720,2732,2732,2732,2732,2732,2720,2720,2720,2720,2720,2709,2709,2709,2709,2709,2685,2685,2685,2674,2674,2674,2674,2674,2674,2674,2674,2674,2662,2662,2662,2674,2674,2674,2674,2674,2685,2685,2685,2685,2685,2685,2685,2674,2674,2674,2674,2674,2674,2674,2685,2685,2685,2685,2685,2697,2697,2697,2709,2709,2709,2720,2732,2732,2745,2745,2757,2757,2757,2757,2769,2769,2769,2769,2769,2781,2781,2781,2781,2781,2769,2769,2769,2769,2769,0,0,0,0,0,0,0,0,0,0,0,0,0,0,0,0,0,0,0,0,0,0,1164,1164,1162,1162,1164,1164,1164,1164,1164,1166,1166,1166,1166,1166,1166,1168,1168,1168,1168,1168,1170,1170,1173,1173,1173,1175,1175,1175,1175,1177,1177,1177,1175,1175,1177,1175,1175,1175,1175,1175,1173,1173,1173,1173,1175,1175,1175,1175,1175,1175,1177,1177,1177,1179,1179,1179,1179,1179,1179,1179,1184,1191,1191,1200,1211,1211,1223,1233,1233,1241,1248,1248,1258,1263,1263,1266,1268,1268,1268,1268,1271,1271,1271,1271,1276,1276,1276,1276,1276,1276,1276,1276,1276,1276,1279,1279,1279,1282,1282,1282,1282,1282,1282,1284,1284,1284,1284,1284,1284,1284,1282,1282,1279,1276,1276,1271,1271,1266,1261,1261,1253,1253,1248,1243,1243,1236,1233,1233,1228,1228,1223,1219,1219,1216,1214,1214,1211,1211,1207,1207,1207,1204,1204,1204,1202,1202,1202,1197,1197,1195,1193,1193,1188,1188,1186,1181,1181,1179,1175,1175,1173,1173,1170,1168,1168,1166,1164,1164,1159,1159,1157,1155,1155,1153,1153,1153,1151,1151,1151,1149,1149,1149,1149,1147,1147,1147,1147,1147,1147,1147,1144,1144,1144,1144,1142,1140,1140,1140,1138,1138,1138,1138,1138,1138,1138,1136,1136,1136,1134,1134,1132,1132,1132,1130,1130,1130,1128,1128,1126,1126,1126,1124,1124,1124,1122,1122,1120,1118,1118,1114,1112,1112,1108,1108,1106,1102,1102,1100,1100,1096,1094,1094,1094,1092,1092,1090,1090,1086,1084,1084,1082,1082,1082,1081,1081,1079,1079,1079,1077,1077,1077,1077,1077,1077,1077,1077,1077,1077,1077,1075,1075,1075,1073,1073,1071,1071,1071,1069,1069,1069,1068,1068,1064,1064,1064,1060,1060,1058,1057,1057,1055,1055,1055,1053,1053,1053,1051,1051,1051,1050,1050,1048,1048,1046,1044,1044,1041,1039,1037,1034,1034,1032,1029,1029,1027,1027,1025,1022,1022,1020,1018,1018,1017,1017,1014,1012,1012,1009,1009,1007,1005,1005,1004,1002,1002,1000,1000,999,999,999,997,996,996,996,996,994,994,994,992,992,992,991,991,989,989,989,988,988,988,986,986,986,985,985,985,985,985,983,983,983,981,981,980,980,980,978,978,978,977,977,977,977,975,975,977,975,975,975,974,974,974,974,974,972,972,972,971,971,971,969,969,968,968,968,966,966,966,965,965,963,962,962,960,960,959,959,959,957,957,957,956,956,956,956,957,957,957,960,960,960,960,962,965,965,966,969,969,971,971,975,975,975,978,980,980,2832,2819,2819,2807,2794,2794,2781,2757,2757,2757,2757,2757,2745,2745,2745,2745,2745,2745,2745,2745,2757,2757
2940,2940,2940,2940,2954,2954,2954,2968,2968,2968,2968,2982,2982,2982,2982,2982,2996,2982,2968,2968,2968,2968,2940,2912,2912,2885,2845,2845,2807,2807,2781,2745,2745,2732,2720,2720,2709,2709,2709,2709,2709,2709,2709,2720,2720,2720,2720,2720,2720,2720,2720,2732,2732,2732,2732,2732,2732,2732,2732,2732,2732,2732,2732,2720,2720,2720,2720,2732,2732,2732,2732,2732,2720,2720,2720,2720,2720,2720,2720,2709,2697,2697,2685,2685,2685,2674,2674,2662,2662,2662,2662,2662,2662,2662,2662,2662,2662,2674,2674,2674,2685,2685,2697,2697,2697,2697,2697,2697,2697,2697,2697,2697,2697,2697,2697,2697,2697,2697,2697,2709,2709,2709,2720,2720,2732,2732,2732,2732,2757,2757,2757,2757,2757,2757,2757,2769,2769,2769,2769,2769,2769,2769,2769,2769,2769,2769,2769,2769,2769,2769,2769,0,0,0,0,0,0,0,0,0,0,0,0,0,0,0,0,0,0,0,0,0,0,1159,1159,1159,1162,1162,1162,1164,1164,1164,1166,1166,1166,1166,1166,1166,1168,1168,1168,1168,1168,1170,1170,1173,1173,1173,1175,1175,1175,1175,1177,1177,1177,1175,1175,1177,1175,1175,1175,1175,1175,1173,1173,1173,1173,1175,1175,1175,1175,1175,1175,1177,1177,1177,1179,1179,1179,1179,1179,1179,1179,1184,1191,1191,1200,1211,1211,1223,1233,1233,1241,1248,1248,1258,1263,1263,1266,1268,1268,1268,1268,1271,1271,1271,1271,1276,1276,1276,1276,1276,1276,1276,1276,1276,1276,1279,1279,1279,1282,1282,1282,1282,1279,1279,1282,1282,1282,1282,1282,1282,1282,1279,1279,1276,1274,1274,1268,1268,1266,1258,1258,1253,1253,1248,1243,1243,1236,1231,1231,1226,1226,1221,1219,1219,1216,1211,1211,1209,1209,1207,1207,1207,1204,1204,1204,1202,1202,1200,1197,1197,1195,1193,1193,1188,1188,1186,1184,1184,1179,1177,1177,1175,1175,1173,1170,1170,1166,1164,1164,1162,1162,1159,1157,1157,1155,1155,1153,1151,1151,1151,1149,1149,1149,1149,1147,1147,1147,1147,1147,1147,1147,1144,1144,1144,1144,1142,1140,1140,1140,1138,1138,1138,1138,1138,1138,1138,1136,1136,1136,1134,1134,1134,1132,1132,1132,1130,1130,1130,1130,1130,1128,1128,1128,1128,1128,1126,1126,1124,1122,1122,1118,1116,1116,1112,1112,1110,1106,1106,1104,1104,1100,1098,1098,1096,1094,1094,1092,1092,1088,1086,1086,1084,1082,1082,1081,1081,1079,1079,1079,1077,1077,1077,1077,1077,1077,1077,1077,1077,1077,1077,1075,1075,1075,1073,1073,1071,1071,1071,1069,1069,1069,1068,1068,1064,1064,1064,1060,1060,1058,1057,1057,1055,1055,1055,1053,1053,1053,1051,1051,1051,1050,1050,1050,1050,1046,1044,1044,1041,1041,1037,1034,1034,1032,1029,1029,1027,1027,1025,1022,1022,1020,1018,1018,1017,1017,1014,1012,1012,1009,1009,1007,1005,1005,1004,1002,1002,1000,1000,999,999,999,997,996,996,996,996,994,994,994,992,992,992,991,991,989,988,988,988,986,986,986,986,985,985,985,983,983,983,983,983,981,981,981,980,978,978,977,977,977,975,975,975,975,975,975,975,975,974,974,974,974,974,974,974,972,972,972,972,972,971,969,969,969,966,966,966,966,965,963,963,962,962,962,959,959,959,959,959,957,956,956,956,956,956,956,956,956,957,959,959,959,959,962,963,963,966,969,969,972,972,975,977,977,0,0,2832,2832,2807,2807,2794,2781,2781,2769,2745,2745,2745,2745,2732,2732,2732,2720,2720,2720,2720,2720,2720,2720,2732
