# .PCD v0.7 - Point Cloud Data file format
VERSION 0.7
FIELDS x y z
SIZE 4 4 4
TYPE F F F
COUNT 1 1 1
WIDTH 1660
HEIGHT 1
VIEWPOINT 0 0 0 1 0 0 0
POINTS 1660
DATA ascii
448.1547828 358.4616756 2001
451.7430956 357.2076867 1994
456.8991662 357.2076867 1994
462.0552368 357.2076867 1994
467.2113074 357.2076867 1994
472.3673779 357.2076867 1994
477.5234485 357.2076867 1994
482.6795191 357.2076867 1994
486.3676792 356.1328391 1988
491.5082351 356.1328391 1988
496.6487909 356.1328391 1988
501.7893468 356.1328391 1988
505.3999331 355.0579915 1982
510.5249742 355.0579915 1982
515.6500152 355.0579915 1982
520.7750563 355.0579915 1982
524.0427308 353.8040026 1975
529.1496713 353.8040026 1975
534.2566118 353.8040026 1975
539.3635524 353.8040026 1975
542.8164053 352.729155 1969
546.2382288 351.6543074 1963
551.3141398 351.6543074 1963
556.3900508 351.6543074 1963
561.4659618 351.6543074 1963
568.2735342 352.729155 1969
573.36496 352.729155 1969
578.4563858 352.729155 1969
583.5478116 352.729155 1969
590.4329577 353.8040026 1975
597.6506726 355.0579915 1982
602.7757137 355.0579915 1982
609.7410194 356.1328391 1988
616.7373546 357.2076867 1994
621.8934252 357.2076867 1994
629.2507729 358.4616756 2001
634.424944 358.4616756 2001
643.7544318 360.790512 2014
655.4067288 364.3733374 2034
660.6662311 364.3733374 2034
1303.762471 707.7871465 3951
1313.978938 707.7871465 3951
370.4369215 348.9159549 1920
375.4016434 348.9159549 1920
380.3663653 348.9159549 1920
392.7567384 355.6398561 1957
401.4761579 358.9109432 1975
406.5830985 358.9109432 1975
417.109756 363.6358467 2001
422.2839271 363.6358467 2001
427.4580983 363.6358467 2001
432.6322694 363.6358467 2001
437.8064405 363.6358467 2001
442.9806117 363.6358467 2001
448.1547828 363.6358467 2001
453.328954 363.6358467 2001
458.5031251 363.6358467 2001
463.6772963 363.6358467 2001
468.8514674 363.6358467 2001
474.0256386 363.6358467 2001
479.1998097 363.6358467 2001
482.6795191 362.3637573 1994
487.8355897 362.3637573 1994
492.9916603 362.3637573 1994
496.6487909 361.2733949 1988
501.7893468 361.2733949 1988
506.9299026 361.2733949 1988
512.0704584 361.2733949 1988
517.2110143 361.2733949 1988
520.7750563 360.1830326 1982
525.9000974 360.1830326 1982
531.0251385 360.1830326 1982
534.2566118 358.9109432 1975
539.3635524 358.9109432 1975
544.4704929 358.9109432 1975
547.9078311 357.8205808 1969
552.9992569 357.8205808 1969
558.0906827 357.8205808 1969
563.1821084 357.8205808 1969
568.2735342 357.8205808 1969
573.36496 357.8205808 1969
580.2190766 358.9109432 1975
585.3260172 358.9109432 1975
592.5256315 360.1830326 1982
599.4599077 361.2733949 1988
604.6004635 361.2733949 1988
613.7282595 363.6358467 2001
620.75821 364.7262091 2007
625.9478959 364.7262091 2007
633.3388589 365.9982985 2014
638.5466453 365.9982985 2014
647.9097484 368.3607503 2027
655.4067288 369.6328397 2034
660.6662311 369.6328397 2034
1303.762471 718.0036134 3951
1313.978938 718.0036134 3951
370.4369215 353.8806768 1920
375.4016434 353.8806768 1920
380.3663653 353.8806768 1920
392.7567384 360.7002524 1957
401.4761579 364.0178837 1975
406.5830985 364.0178837 1975
417.109756 368.8100179 2001
422.2839271 368.8100179 2001
427.4580983 368.8100179 2001
432.6322694 368.8100179 2001
439.1192035 369.915895 2007
442.9806117 368.8100179 2001
448.1547828 368.8100179 2001
453.328954 368.8100179 2001
458.5031251 368.8100179 2001
465.067633 369.915895 2007
470.2573189 369.915895 2007
475.4470048 369.915895 2007
480.6366907 369.915895 2007
484.3739808 368.8100179 2001
489.548152 368.8100179 2001
494.7223231 368.8100179 2001
498.1477309 367.5198279 1994
503.3038015 367.5198279 1994
508.4598721 367.5198279 1994
512.0704584 366.4139508 1988
517.2110143 366.4139508 1988
522.3515701 366.4139508 1988
527.492126 366.4139508 1988
532.6326818 366.4139508 1988
537.7732376 366.4139508 1988
542.9137935 366.4139508 1988
546.4002617 365.3080737 1982
551.5253028 365.3080737 1982
556.6503439 365.3080737 1982
561.775385 365.3080737 1982
566.9004261 365.3080737 1982
572.0254672 365.3080737 1982
577.1505082 365.3080737 1982
582.2755493 365.3080737 1982
587.4005904 365.3080737 1982
594.3193519 366.4139508 1988
603.3799172 368.8100179 2001
608.5540883 368.8100179 2001
615.5685241 369.915895 2007
622.923286 371.2060849 2014
628.1310724 371.2060849 2014
637.4269448 373.602152 2027
642.6683466 373.602152 2027
652.0650649 375.9982191 2040
659.5956607 377.2884091 2047
664.8887783 377.2884091 2047
1303.762471 728.2200802 3951
1313.978938 728.2200802 3951
363.6841651 352.3039462 1885
368.5583843 352.3039462 1885
373.4326035 352.3039462 1885
381.9193016 355.6681218 1903
396.5974603 364.6392567 1951
401.6423418 364.6392567 1951
417.109756 373.984189 2001
422.2839271 373.984189 2001
427.4580983 373.984189 2001
432.6322694 373.984189 2001
439.1192035 375.1055809 2007
442.9806117 373.984189 2001
448.1547828 373.984189 2001
453.328954 373.984189 2001
458.5031251 373.984189 2001
465.067633 375.1055809 2007
470.2573189 375.1055809 2007
475.4470048 375.1055809 2007
480.6366907 375.1055809 2007
484.3739808 373.984189 2001
489.548152 373.984189 2001
494.7223231 373.984189 2001
498.1477309 372.6758985 1994
503.3038015 372.6758985 1994
508.4598721 372.6758985 1994
512.0704584 371.5545066 1988
517.2110143 371.5545066 1988
522.3515701 371.5545066 1988
527.492126 371.5545066 1988
532.6326818 371.5545066 1988
537.7732376 371.5545066 1988
542.9137935 371.5545066 1988
546.4002617 370.4331147 1982
551.5253028 370.4331147 1982
556.6503439 370.4331147 1982
561.775385 370.4331147 1982
566.9004261 370.4331147 1982
572.0254672 370.4331147 1982
577.1505082 370.4331147 1982
582.2755493 370.4331147 1982
587.4005904 370.4331147 1982
594.3193519 371.5545066 1988
603.3799172 373.984189 2001
608.5540883 373.984189 2001
615.5685241 375.1055809 2007
622.923286 376.4138714 2014
628.1310724 376.4138714 2014
637.4269448 378.8435538 2027
642.6683466 378.8435538 2027
652.0650649 381.2732362 2040
659.5956607 382.5815267 2047
664.8887783 382.5815267 2047
679.0216181 387.6277901 2074
689.0043128 390.2443711 2088
694.4034479 390.2443711 2088
1252.472343 698.440237 3737
527.7674172 695.4078869 3670
534.1830522 691.4287137 3649
543.6186096 691.4287137 3649
354.0373703 347.7039435 1835
358.7822998 347.7039435 1835
363.5272294 347.7039435 1835
381.9193016 360.5888852 1903
390.2958092 363.8101207 1920
395.2605312 363.8101207 1920
417.109756 379.1583602 2001
422.2839271 379.1583602 2001
427.4580983 379.1583602 2001
433.9295176 380.2952668 2007
439.1192035 380.2952668 2007
444.3088894 380.2952668 2007
449.4985753 380.2952668 2007
454.6882612 380.2952668 2007
459.8779471 380.2952668 2007
466.6896925 381.6216578 2014
471.8974789 381.6216578 2014
475.4470048 380.2952668 2007
480.6366907 380.2952668 2007
485.8263766 380.2952668 2007
491.0160625 380.2952668 2007
496.2057484 380.2952668 2007
499.8964943 379.1583602 2001
505.0706654 379.1583602 2001
510.2448366 379.1583602 2001
513.6159427 377.8319691 1994
518.7720133 377.8319691 1994
523.9280839 377.8319691 1994
529.0841545 377.8319691 1994
534.2402251 377.8319691 1994
539.3962957 377.8319691 1994
544.5523663 377.8319691 1994
549.7084369 377.8319691 1994
553.1949051 376.6950625 1988
558.335461 376.6950625 1988
563.4760168 376.6950625 1988
568.6165727 376.6950625 1988
575.4887899 377.8319691 1994
580.6448605 377.8319691 1994
585.8009311 377.8319691 1994
590.9570016 377.8319691 1994
598.205746 379.1583602 2001
605.1891523 380.2952668 2007
610.3788382 380.2952668 2007
617.7154995 381.6216578 2014
626.9441413 384.0849555 2027
632.1855431 384.0849555 2027
639.6282219 385.4113466 2034
644.8877242 385.4113466 2034
654.3025431 387.8746443 2047
664.1068181 390.5274264 2061
669.4361368 390.5274264 2061
679.0216181 392.9907241 2074
689.0043128 395.6435062 2088
694.4034479 395.6435062 2088
709.5220633 401.1385549 2117
1163.853027 652.9633729 3446
1172.763669 652.9633729 3446
427.1714387 680.696897 3544
438.9209974 684.7303719 3565
448.1393482 684.7303719 3565
459.9235207 688.5717765 3585
469.1935875 688.5717765 3585
481.2663702 692.6052513 3606
490.5907386 692.6052513 3606
499.915107 692.6052513 3606
509.2394754 692.6052513 3606
521.5837663 696.6387261 3627
530.9624363 696.6387261 3627
543.6186096 700.8642712 3649
354.0373703 352.448873 1835
358.7822998 352.448873 1835
363.5272294 352.448873 1835
385.3310873 368.7748426 1920
390.2958092 368.7748426 1920
395.2605312 368.7748426 1920
417.109756 384.3325313 2001
423.5501458 385.4849527 2007
428.7398317 385.4849527 2007
433.9295176 385.4849527 2007
439.1192035 385.4849527 2007
444.3088894 385.4849527 2007
449.4985753 385.4849527 2007
454.6882612 385.4849527 2007
459.8779471 385.4849527 2007
466.6896925 386.8294443 2014
471.8974789 386.8294443 2014
477.1052654 386.8294443 2014
482.3130518 386.8294443 2014
487.5208383 386.8294443 2014
491.0160625 385.4849527 2007
496.2057484 385.4849527 2007
501.3954343 385.4849527 2007
506.5851202 385.4849527 2007
511.7748061 385.4849527 2007
515.4190077 384.3325313 2001
520.5931789 384.3325313 2001
525.76735 384.3325313 2001
530.9415211 384.3325313 2001
536.1156923 384.3325313 2001
541.2898634 384.3325313 2001
546.4640346 384.3325313 2001
551.6382057 384.3325313 2001
556.8123769 384.3325313 2001
561.986548 384.3325313 2001
567.1607192 384.3325313 2001
572.3348903 384.3325313 2001
577.5090614 384.3325313 2001
582.6832326 384.3325313 2001
589.6200946 385.4849527 2007
594.8097805 385.4849527 2007
602.0921402 386.8294443 2014
609.1091618 387.9818657 2020
614.332463 387.9818657 2020
621.7027396 389.3263573 2027
629.1092173 390.6708489 2034
634.3687196 390.6708489 2034
643.7163079 393.1677619 2047
653.4481807 395.8567451 2061
658.7774994 395.8567451 2061
668.29575 398.3536581 2074
673.658684 398.3536581 2074
683.6051777 401.0426414 2088
693.9540564 403.9236948 2103
699.3919784 403.9236948 2103
709.5220633 406.612678 2117
1163.853027 661.8740144 3446
1172.763669 661.8740144 3446
1329.469327 744.6562838 3877
1391.664593 773.6588886 4028
311.9221006 678.3762409 3485
320.9335881 678.3762409 3485
329.9450756 678.3762409 3485
338.9565631 678.3762409 3485
345.9711033 674.4831204 3465
354.9308749 674.4831204 3465
363.8906466 674.4831204 3465
377.047003 682.0747053 3504
386.1076205 682.0747053 3504
395.1682381 682.0747053 3504
406.5360979 685.9678258 3524
415.6484313 685.9678258 3524
427.1714387 689.8609463 3544
438.9209974 693.9487227 3565
448.1393482 693.9487227 3565
459.9235207 697.8418432 3585
469.1935875 697.8418432 3585
481.2663702 701.9296197 3606
490.5907386 701.9296197 3606
499.915107 701.9296197 3606
509.2394754 701.9296197 3606
521.5837663 706.0173962 3627
530.9624363 706.0173962 3627
274.8049216 288.8695384 1484
278.6422379 288.8695384 1484
296.5654619 303.2740842 1558
354.0373703 357.1938026 1835
358.7822998 357.1938026 1835
360.3575097 354.0793062 1819
365.0610665 354.0793062 1819
390.2958092 373.7395646 1920
395.2605312 373.7395646 1920
415.6506014 388.1441103 1994
420.806672 388.1441103 1994
425.9627426 388.1441103 1994
433.9295176 390.6746386 2007
439.1192035 390.6746386 2007
444.3088894 390.6746386 2007
449.4985753 390.6746386 2007
454.6882612 390.6746386 2007
459.8779471 390.6746386 2007
466.6896925 392.0372307 2014
471.8974789 392.0372307 2014
477.1052654 392.0372307 2014
482.3130518 392.0372307 2014
487.5208383 392.0372307 2014
491.0160625 390.6746386 2007
496.2057484 390.6746386 2007
501.3954343 390.6746386 2007
506.5851202 390.6746386 2007
511.7748061 390.6746386 2007
515.4190077 389.5067024 2001
520.5931789 389.5067024 2001
525.76735 389.5067024 2001
530.9415211 389.5067024 2001
536.1156923 389.5067024 2001
541.2898634 389.5067024 2001
546.4640346 389.5067024 2001
551.6382057 389.5067024 2001
556.8123769 389.5067024 2001
561.986548 389.5067024 2001
567.1607192 389.5067024 2001
572.3348903 389.5067024 2001
577.5090614 389.5067024 2001
582.6832326 389.5067024 2001
589.6200946 390.6746386 2007
594.8097805 390.6746386 2007
602.0921402 392.0372307 2014
609.1091618 393.2051669 2020
614.332463 393.2051669 2020
621.7027396 394.567759 2027
629.1092173 395.9303512 2034
634.3687196 395.9303512 2034
643.7163079 398.4608795 2047
653.4481807 401.1860638 2061
658.7774994 401.1860638 2061
668.29575 403.7165921 2074
673.658684 403.7165921 2074
683.6051777 406.4417765 2088
693.9540564 409.3616168 2103
699.3919784 409.3616168 2103
709.5220633 412.0868011 2117
750.7966568 432.7203396 2223
756.5448739 432.7203396 2223
1329.469327 754.681402 3877
1133.923335 638.8610682 3282
1142.409906 638.8610682 3282
255.9820524 707.1119099 3585
265.2521191 707.1119099 3585
272.9906813 703.1670736 3565
280.5466508 699.0249955 3544
289.7107001 699.0249955 3544
297.1880972 695.0801592 3524
306.3004306 695.0801592 3524
311.9221006 687.3877284 3485
320.9335881 687.3877284 3485
329.9450756 687.3877284 3485
338.9565631 687.3877284 3485
345.9711033 683.442892 3465
354.9308749 683.442892 3465
363.8906466 683.442892 3465
274.8049216 292.7068548 1484
278.6422379 292.7068548 1484
296.5654619 307.3027491 1558
360.3575097 358.7828631 1819
365.0610665 358.7828631 1819
395.1745068 383.4380901 1944
400.2012878 383.4380901 1944
415.6506014 393.3001809 1994
420.806672 393.3001809 1994
425.9627426 393.3001809 1994
433.9295176 395.8643245 2007
439.1192035 395.8643245 2007
444.3088894 395.8643245 2007
449.4985753 395.8643245 2007
454.6882612 395.8643245 2007
459.8779471 395.8643245 2007
468.0800292 398.4284681 2020
473.3033304 398.4284681 2020
478.5266316 398.4284681 2020
483.7499328 398.4284681 2020
487.5208383 397.2450172 2014
492.7286247 397.2450172 2014
497.9364112 397.2450172 2014
503.1441976 397.2450172 2014
508.3519841 397.2450172 2014
513.5597705 397.2450172 2014
516.964492 395.8643245 2007
522.1541779 395.8643245 2007
527.3438638 395.8643245 2007
532.5335497 395.8643245 2007
537.7232356 395.8643245 2007
542.9129215 395.8643245 2007
548.1026074 395.8643245 2007
553.2922933 395.8643245 2007
558.4819792 395.8643245 2007
565.637635 397.2450172 2014
568.861351 395.8643245 2007
574.0510369 395.8643245 2007
581.2609944 397.2450172 2014
586.4687808 397.2450172 2014
593.4392581 398.4284681 2020
598.6625593 398.4284681 2020
603.8858605 398.4284681 2020
611.2199361 399.8091608 2027
616.4613378 399.8091608 2027
625.6899797 402.3733044 2040
633.1300727 403.7539971 2047
638.4231903 403.7539971 2047
645.917585 405.1346898 2054
655.6675583 407.8960752 2068
661.0149776 407.8960752 2068
670.5513288 410.4602189 2081
675.9323633 410.4602189 2081
685.8969575 413.2216043 2095
696.2639368 416.1802315 2110
701.7199593 416.1802315 2110
711.8681448 418.9416169 2124
722.4264727 421.9002442 2139
727.9574832 421.9002442 2139
765.036386 440.0464912 2231
1133.923335 647.3476397 3282
1142.409906 647.3476397 3282
1326.231103 745.9685477 3782
1336.010571 745.9685477 3782
200.3616519 716.3819767 3585
209.6317187 716.3819767 3585
218.9017854 716.3819767 3585
226.8989269 712.3854245 3565
236.1172778 712.3854245 3565
245.3356287 712.3854245 3565
254.5539796 712.3854245 3565
263.7723305 712.3854245 3565
271.3826016 708.1890447 3544
280.5466508 708.1890447 3544
288.0757639 704.1924926 3524
295.5014452 700.1959404 3504
304.5620627 700.1959404 3504
310.1320168 692.4026637 3465
319.0917885 692.4026637 3465
328.0515601 692.4026637 3465
337.0113317 692.4026637 3465
345.9711033 692.4026637 3465
354.9308749 692.4026637 3465
363.8906466 692.4026637 3465
274.8049216 296.5441711 1484
278.6422379 296.5441711 1484
285.9058561 300.1410681 1502
289.7897167 300.1410681 1502
352.0369954 355.0936604 1777
356.631949 355.0936604 1777
361.2269026 355.0936604 1777
398.9660986 387.2659054 1938
410.4393351 393.4605613 1969
415.5307609 393.4605613 1969
420.6221866 393.4605613 1969
432.6322694 399.8550447 2001
439.1192035 401.0540104 2007
444.3088894 401.0540104 2007
449.4985753 401.0540104 2007
454.6882612 401.0540104 2007
459.8779471 401.0540104 2007
468.0800292 403.6517693 2020
473.3033304 403.6517693 2020
478.5266316 403.6517693 2020
483.7499328 403.6517693 2020
487.5208383 402.4528036 2014
492.7286247 402.4528036 2014
497.9364112 402.4528036 2014
503.1441976 402.4528036 2014
508.3519841 402.4528036 2014
513.5597705 402.4528036 2014
516.964492 401.0540104 2007
522.1541779 401.0540104 2007
527.3438638 401.0540104 2007
532.5335497 401.0540104 2007
537.7232356 401.0540104 2007
542.9129215 401.0540104 2007
548.1026074 401.0540104 2007
553.2922933 401.0540104 2007
558.4819792 401.0540104 2007
565.637635 402.4528036 2014
568.861351 401.0540104 2007
574.0510369 401.0540104 2007
581.2609944 402.4528036 2014
586.4687808 402.4528036 2014
593.4392581 403.6517693 2020
598.6625593 403.6517693 2020
608.0712081 406.4493558 2034
613.3307104 406.4493558 2034
618.5902127 406.4493558 2034
627.8369551 409.0471147 2047
635.2951486 410.445908 2054
640.6063668 410.445908 2054
648.118862 411.8447012 2061
657.569882 414.4424602 2074
662.932816 414.4424602 2074
670.5513288 415.8412534 2081
675.9323633 415.8412534 2081
685.8969575 418.6388399 2095
698.5738171 423.0350473 2117
704.0479402 423.0350473 2117
714.2142262 425.8326338 2131
722.4264727 427.4312547 2139
727.9574832 427.4312547 2139
765.036386 445.8153947 2231
1326.231103 755.7480156 3782
1336.010571 755.7480156 3782
1345.790039 755.7480156 3782
1389.620036 774.7316384 3877
134.715418 721.6037754 3565
143.9337689 721.6037754 3565
153.1521198 721.6037754 3565
162.3704707 721.6037754 3565
171.5888216 721.6037754 3565
180.8071724 721.6037754 3565
190.0255233 721.6037754 3565
199.2438742 721.6037754 3565
208.4622251 721.6037754 3565
217.680576 721.6037754 3565
226.8989269 721.6037754 3565
236.1172778 721.6037754 3565
245.3356287 721.6037754 3565
254.5539796 721.6037754 3565
263.7723305 721.6037754 3565
271.3826016 717.353094 3544
280.5466508 717.353094 3544
288.0757639 713.304826 3524
295.5014452 709.2565579 3504
304.5620627 709.2565579 3504
310.1320168 701.3624353 3465
319.0917885 701.3624353 3465
328.0515601 701.3624353 3465
337.0113317 701.3624353 3465
276.0135375 297.5476998 1470
279.8146528 297.5476998 1470
283.615768 297.5476998 1470
352.0369954 359.688614 1777
356.631949 359.688614 1777
361.2269026 359.688614 1777
396.4957203 389.8482108 1926
410.4393351 398.551987 1969
415.5307609 398.551987 1969
420.6221866 398.551987 1969
432.6322694 405.0292159 2001
439.1192035 406.2436963 2007
444.3088894 406.2436963 2007
449.4985753 406.2436963 2007
454.6882612 406.2436963 2007
459.8779471 406.2436963 2007
468.0800292 408.8750705 2020
473.3033304 408.8750705 2020
478.5266316 408.8750705 2020
485.426294 410.2919643 2027
487.5208383 407.6605901 2014
492.7286247 407.6605901 2014
497.9364112 407.6605901 2014
503.1441976 407.6605901 2014
508.3519841 407.6605901 2014
513.5597705 407.6605901 2014
518.767557 407.6605901 2014
523.9753434 407.6605901 2014
529.1831299 407.6605901 2014
532.5335497 406.2436963 2007
537.7232356 406.2436963 2007
542.9129215 406.2436963 2007
550.0142757 407.6605901 2014
555.2220621 407.6605901 2014
560.4298486 407.6605901 2014
565.637635 407.6605901 2014
570.8454215 407.6605901 2014
576.0532079 407.6605901 2014
582.9926557 408.8750705 2020
588.2159569 408.8750705 2020
595.4957308 410.2919643 2027
600.7371326 410.2919643 2027
608.0712081 411.7088581 2034
613.3307104 411.7088581 2034
618.5902127 411.7088581 2034
627.8369551 414.3402323 2047
635.2951486 415.7571261 2054
640.6063668 415.7571261 2054
648.118862 417.1740199 2061
657.569882 419.8053942 2074
662.932816 419.8053942 2074
670.5513288 421.222288 2081
675.9323633 421.222288 2081
685.8969575 424.0560756 2095
698.5738171 428.5091704 2117
704.0479402 428.5091704 2117
711.8681448 429.9260642 2124
722.4264727 432.9622652 2139
727.9574832 432.9622652 2139
751.662823 443.6901755 2192
837.140841 490.4476712 2423
843.4062167 490.4476712 2423
1326.231103 765.5274835 3782
1336.010571 765.5274835 3782
1345.790039 765.5274835 3782
1389.620036 784.7567566 3877
1399.645154 784.7567566 3877
1296.22763 721.6037754 3565
23.41932493 710.3222069 3465
32.56598889 714.4221908 3485
69.3797625 722.4171593 3524
78.93756748 726.5171432 3544
88.62366355 730.8221263 3565
97.84201444 730.8221263 3565
106.4297152 726.5171432 3544
115.5937645 726.5171432 3544
124.7578137 726.5171432 3544
134.715418 730.8221263 3565
143.9337689 730.8221263 3565
153.1521198 730.8221263 3565
162.3704707 730.8221263 3565
171.5888216 730.8221263 3565
180.8071724 730.8221263 3565
190.0255233 730.8221263 3565
199.2438742 730.8221263 3565
208.4622251 730.8221263 3565
217.680576 730.8221263 3565
226.8989269 730.8221263 3565
236.1172778 730.8221263 3565
245.3356287 730.8221263 3565
254.5539796 730.8221263 3565
263.7723305 730.8221263 3565
271.3826016 726.5171432 3544
280.5466508 726.5171432 3544
288.0757639 722.4171593 3524
297.1880972 722.4171593 3524
276.0135375 301.3488151 1470
279.8146528 301.3488151 1470
283.615768 301.3488151 1470
386.5352469 394.8284475 1926
391.5154836 394.8284475 1926
396.4957203 394.8284475 1926
414.3998975 407.5383975 1988
420.806672 408.7683927 1994
425.9627426 408.7683927 1994
432.6322694 410.203387 2001
439.1192035 411.4333822 2007
444.3088894 411.4333822 2007
449.4985753 411.4333822 2007
454.6882612 411.4333822 2007
461.481906 412.8683765 2014
468.0800292 414.0983717 2020
473.3033304 414.0983717 2020
480.1848922 415.5333661 2027
485.426294 415.5333661 2027
488.973234 414.0983717 2020
494.1965352 414.0983717 2020
499.4198364 414.0983717 2020
503.1441976 412.8683765 2014
508.3519841 412.8683765 2014
513.5597705 412.8683765 2014
518.767557 412.8683765 2014
523.9753434 412.8683765 2014
529.1831299 412.8683765 2014
532.5335497 411.4333822 2007
537.7232356 411.4333822 2007
542.9129215 411.4333822 2007
550.0142757 412.8683765 2014
555.2220621 412.8683765 2014
560.4298486 412.8683765 2014
567.3227521 414.0983717 2020
572.5460533 414.0983717 2020
577.7693545 414.0983717 2020
585.0129273 415.5333661 2027
590.2543291 415.5333661 2027
597.5522035 416.9683604 2034
602.8117058 416.9683604 2034
609.8649285 418.1983556 2040
617.2507199 419.6333499 2047
622.5438375 419.6333499 2047
629.9839305 421.0683443 2054
637.4602246 422.5033387 2061
642.7895433 422.5033387 2061
650.3201391 423.938333 2068
657.569882 425.1683282 2074
662.932816 425.1683282 2074
672.8069075 428.0383169 2088
678.2060426 428.0383169 2088
688.5161344 431.1133048 2103
698.5738171 433.9832935 2117
704.0479402 433.9832935 2117
711.8681448 435.4182879 2124
722.4264727 438.4932758 2139
727.9574832 438.4932758 2139
751.662823 449.3582331 2192
837.140841 496.7130469 2423
843.4062167 496.7130469 2423
1296.22763 730.8221263 3565
1305.445981 730.8221263 3565
1314.664332 730.8221263 3565
23.41932493 719.2819785 3465
32.56598889 723.4336783 3485
41.57747636 723.4336783 3485
50.86477168 727.377793 3504
60.26742911 731.5294927 3524
69.3797625 731.5294927 3524
78.49209588 731.5294927 3524
88.62366355 740.0404772 3565
97.84201444 740.0404772 3565
106.4297152 735.6811925 3544
115.5937645 735.6811925 3544
124.7578137 735.6811925 3544
134.715418 740.0404772 3565
143.9337689 740.0404772 3565
153.1521198 740.0404772 3565
162.3704707 740.0404772 3565
171.5888216 740.0404772 3565
180.8071724 740.0404772 3565
190.0255233 740.0404772 3565
199.2438742 740.0404772 3565
208.4622251 740.0404772 3565
217.680576 740.0404772 3565
226.8989269 740.0404772 3565
236.1172778 740.0404772 3565
245.3356287 740.0404772 3565
254.5539796 740.0404772 3565
263.7723305 740.0404772 3565
271.3826016 735.6811925 3544
280.5466508 735.6811925 3544
288.0757639 731.5294927 3524
297.1880972 731.5294927 3524
171.3519335 256.5750434 1236
174.5479732 256.5750434 1236
178.0316247 256.9902134 1238
181.232836 256.9902134 1238
184.8809796 257.6129684 1241
188.0899483 257.6129684 1241
191.298917 257.6129684 1241
200.1066633 260.7267432 1256
203.3544189 260.7267432 1256
209.5630337 264.4632729 1274
212.8573336 264.4632729 1274
240.2282243 281.0700718 1354
243.7293876 281.0700718 1354
247.2305509 281.0700718 1354
252.3983208 282.9383367 1363
256.4860492 283.5610917 1366
260.018242 283.5610917 1366
270.1102552 290.6189812 1400
292.3049255 310.3395549 1495
296.1706855 310.3395549 1495
300.0364456 310.3395549 1495
389.0761348 397.3176643 1914
394.025342 397.3176643 1914
402.7266609 401.0541941 1932
416.7969795 409.9803485 1975
421.9039201 409.9803485 1975
432.6322694 415.3775582 2001
437.8064405 415.3775582 2001
442.9806117 415.3775582 2001
449.4985753 416.6230681 2007
454.6882612 416.6230681 2007
459.8779471 416.6230681 2007
468.0800292 419.3216729 2020
473.3033304 419.3216729 2020
480.1848922 420.7747678 2027
485.426294 420.7747678 2027
488.973234 419.3216729 2020
494.1965352 419.3216729 2020
499.4198364 419.3216729 2020
503.1441976 418.076163 2014
508.3519841 418.076163 2014
513.5597705 418.076163 2014
518.767557 418.076163 2014
523.9753434 418.076163 2014
527.3438638 416.6230681 2007
532.5335497 416.6230681 2007
537.7232356 416.6230681 2007
542.9129215 416.6230681 2007
548.1026074 416.6230681 2007
553.2922933 416.6230681 2007
558.4819792 416.6230681 2007
565.637635 418.076163 2014
570.8454215 418.076163 2014
577.7693545 419.3216729 2020
585.0129273 420.7747678 2027
590.2543291 420.7747678 2027
597.5522035 422.2278627 2034
602.8117058 422.2278627 2034
608.0712081 422.2278627 2034
617.2507199 424.9264675 2047
622.5438375 424.9264675 2047
629.9839305 426.3795625 2054
637.4602246 427.8326574 2061
642.7895433 427.8326574 2061
648.118862 427.8326574 2061
657.569882 430.5312622 2074
662.932816 430.5312622 2074
670.5513288 431.9843571 2081
675.9323633 431.9843571 2081
685.8969575 434.8905469 2095
693.9540564 436.5512268 2103
699.3919784 436.5512268 2103
709.5220633 439.4574166 2117
722.4264727 444.0242863 2139
727.9574832 444.0242863 2139
748.919528 453.3656107 2184
796.7176143 478.6909791 2306
762.9989381 455.0262906 2192
768.6669956 455.0262906 2192
755.6125359 444.0242863 2139
761.1435465 444.0242863 2139
1296.22763 740.0404772 3565
1305.445981 740.0404772 3565
1314.664332 740.0404772 3565
1439.745627 804.806993 3877
23.55450141 732.4451657 3485
32.56598889 732.4451657 3485
41.57747636 732.4451657 3485
69.3797625 740.6418261 3524
78.49209588 740.6418261 3524
171.3519335 259.7710832 1236
174.5479732 259.7710832 1236
178.0316247 260.1914247 1238
181.232836 260.1914247 1238
184.8809796 260.8219371 1241
188.0899483 260.8219371 1241
191.298917 260.8219371 1241
200.1066633 263.9744988 1256
203.3544189 263.9744988 1256
209.5630337 267.7575728 1274
212.8573336 267.7575728 1274
233.7548601 280.9983319 1337
237.2120649 280.9983319 1337
242.649346 283.3102104 1348
246.1349945 283.3102104 1348
251.8427853 285.8322598 1360
256.4860492 287.0932845 1366
260.018242 287.0932845 1366
265.8656655 289.6153338 1378
270.7975396 291.0865293 1385
274.3788625 291.0865293 1385
289.399702 303.0662637 1442
389.0761348 402.2668715 1914
394.025342 402.2668715 1914
398.9745492 402.2668715 1914
403.9237564 402.2668715 1914
408.8729635 402.2668715 1914
432.6322694 420.5517293 2001
437.8064405 420.5517293 2001
442.9806117 420.5517293 2001
449.4985753 421.812754 2007
454.6882612 421.812754 2007
459.8779471 421.812754 2007
468.0800292 424.5449741 2020
473.3033304 424.5449741 2020
480.1848922 426.0161696 2027
485.426294 426.0161696 2027
490.6676957 426.0161696 2027
494.1965352 424.5449741 2020
499.4198364 424.5449741 2020
503.1441976 423.2839494 2014
508.3519841 423.2839494 2014
511.7748061 421.812754 2007
516.964492 421.812754 2007
522.1541779 421.812754 2007
527.3438638 421.812754 2007
532.5335497 421.812754 2007
537.7232356 421.812754 2007
542.9129215 421.812754 2007
548.1026074 421.812754 2007
553.2922933 421.812754 2007
558.4819792 421.812754 2007
565.637635 423.2839494 2014
570.8454215 423.2839494 2014
577.7693545 424.5449741 2020
585.0129273 426.0161696 2027
590.2543291 426.0161696 2027
597.5522035 427.487365 2034
602.8117058 427.487365 2034
608.0712081 427.487365 2034
615.1399455 428.7483897 2040
620.4149626 428.7483897 2040
625.6899797 428.7483897 2040
633.1300727 430.2195852 2047
638.4231903 430.2195852 2047
643.7163079 430.2195852 2047
649.0094255 430.2195852 2047
656.5400213 431.6907806 2054
661.8512394 431.6907806 2054
667.1624576 431.6907806 2054
674.7654556 433.1619761 2061
684.3845521 435.8941962 2074
689.7474861 435.8941962 2074
699.802583 438.8365871 2088
707.5659001 440.3077826 2095
712.9831358 440.3077826 2095
725.9444326 444.9315397 2117
731.4185557 444.9315397 2117
736.8926788 444.9315397 2117
742.3668019 444.9315397 2117
747.840925 444.9315397 2117
761.1435465 449.5552968 2139
772.0509564 452.7078585 2154
777.6207538 452.7078585 2154
1476.509831 835.6390184 3976
1486.790942 835.6390184 3976
1487.658875 830.3847489 3951
23.55450141 741.4566532 3485
32.56598889 741.4566532 3485
41.57747636 741.4566532 3485
69.3797625 749.7541595 3524
78.49209588 749.7541595 3524
160.7167993 261.2650703 1228
163.8921527 261.2650703 1228
170.9360307 262.3288532 1233
174.1243131 262.3288532 1233
177.3125955 262.3288532 1233
180.5008779 262.3288532 1233
184.4340473 263.3926361 1238
187.6352587 263.3926361 1238
191.298917 264.0309058 1241
194.8213553 264.4564189 1243
198.0354956 264.4564189 1243
203.3544189 267.2222544 1256
233.7548601 284.4555367 1337
237.2120649 284.4555367 1337
242.649346 286.795859 1348
246.1349945 286.795859 1348
251.8427853 289.3489378 1360
256.4860492 290.6254773 1366
260.018242 290.6254773 1366
265.8656655 293.1785561 1378
270.7975396 294.6678521 1385
274.3788625 294.6678521 1385
289.399702 306.7949767 1442
398.9745492 407.2160787 1914
403.9237564 407.2160787 1914
408.8729635 407.2160787 1914
432.6322694 425.7259005 2001
439.1192035 427.0024399 2007
444.3088894 427.0024399 2007
449.4985753 427.0024399 2007
454.6882612 427.0024399 2007
461.481906 428.4917359 2014
468.0800292 429.7682753 2020
473.3033304 429.7682753 2020
480.1848922 431.2575713 2027
485.426294 431.2575713 2027
490.6676957 431.2575713 2027
494.1965352 429.7682753 2020
499.4198364 429.7682753 2020
503.1441976 428.4917359 2014
508.3519841 428.4917359 2014
511.7748061 427.0024399 2007
516.964492 427.0024399 2007
522.1541779 427.0024399 2007
527.3438638 427.0024399 2007
532.5335497 427.0024399 2007
537.7232356 427.0024399 2007
542.9129215 427.0024399 2007
548.1026074 427.0024399 2007
553.2922933 427.0024399 2007
560.4298486 428.4917359 2014
565.637635 428.4917359 2014
570.8454215 428.4917359 2014
577.7693545 429.7682753 2020
587.0331989 432.7468673 2034
592.2927012 432.7468673 2034
597.5522035 432.7468673 2034
602.8117058 432.7468673 2034
608.0712081 432.7468673 2034
615.1399455 434.0234068 2040
620.4149626 434.0234068 2040
625.6899797 434.0234068 2040
633.1300727 435.5127028 2047
638.4231903 435.5127028 2047
643.7163079 435.5127028 2047
649.0094255 435.5127028 2047
656.5400213 437.0019988 2054
661.8512394 437.0019988 2054
667.1624576 437.0019988 2054
674.7654556 438.4912948 2061
684.3845521 441.2571302 2074
689.7474861 441.2571302 2074
699.802583 444.2357222 2088
707.5659001 445.7250182 2095
712.9831358 445.7250182 2095
725.9444326 450.4056628 2117
731.4185557 450.4056628 2117
736.8926788 450.4056628 2117
742.3668019 450.4056628 2117
747.840925 450.4056628 2117
761.1435465 455.0863074 2139
772.0509564 458.277656 2154
777.6207538 458.277656 2154
1487.658875 840.6012157 3951
1497.875342 840.6012157 3951
1498.549339 835.2823014 3926
1508.701161 835.2823014 3926
1518.852983 835.2823014 3926
1529.004806 835.2823014 3926
1529.355579 829.9633871 3901
1539.442756 829.9633871 3901
1539.996809 824.8572294 3877
1550.021927 824.8572294 3877
1560.047046 824.8572294 3877
1560.352862 819.7510717 3853
1570.315922 819.7510717 3853
8.09031225 257.7648104 1197
147.4127171 263.3637119 1223
150.5751416 263.3637119 1223
153.737566 263.3637119 1223
157.2848637 264.009739 1226
160.4550455 264.009739 1226
163.8921527 264.4404237 1228
167.0675061 264.4404237 1228
170.2428595 264.4404237 1228
173.841873 265.0864508 1231
177.3125955 265.5171356 1233
180.5008779 265.5171356 1233
184.1360925 266.1631627 1236
187.3321322 266.1631627 1236
190.83647 266.5938474 1238
194.5078857 267.2398745 1241
197.7168544 267.2398745 1241
202.8686998 269.8239829 1253
215.0293472 277.1456233 1287
218.3572624 277.1456233 1287
224.4411704 280.5911011 1303
227.8104583 280.5911011 1303
236.1475381 286.6206873 1331
241.2092905 288.5587686 1340
244.6742527 288.5587686 1340
250.7317141 291.5735617 1354
255.3594633 292.8656159 1360
258.8761413 292.8656159 1360
264.1292424 294.8036972 1369
269.4288878 296.7417784 1378
272.9921101 296.7417784 1378
289.399702 310.5236898 1442
395.4308881 408.5044657 1897
400.3361368 408.5044657 1897
405.2413855 408.5044657 1897
432.6322694 430.9000716 2001
439.1192035 432.1921258 2007
444.3088894 432.1921258 2007
449.4985753 432.1921258 2007
454.6882612 432.1921258 2007
461.481906 433.6995223 2014
468.0800292 434.9915765 2020
473.3033304 434.9915765 2020
478.5266316 434.9915765 2020
483.7499328 434.9915765 2020
488.973234 434.9915765 2020
494.1965352 434.9915765 2020
497.9364112 433.6995223 2014
501.3954343 432.1921258 2007
506.5851202 432.1921258 2007
511.7748061 432.1921258 2007
516.964492 432.1921258 2007
522.1541779 432.1921258 2007
525.76735 430.9000716 2001
530.9415211 430.9000716 2001
536.1156923 430.9000716 2001
541.2898634 430.9000716 2001
546.4640346 430.9000716 2001
551.6382057 430.9000716 2001
558.4819792 432.1921258 2007
565.637635 433.6995223 2014
570.8454215 433.6995223 2014
577.7693545 434.9915765 2020
587.0331989 438.0063696 2034
592.2927012 438.0063696 2034
597.5522035 438.0063696 2034
602.8117058 438.0063696 2034
608.0712081 438.0063696 2034
615.1399455 439.2984238 2040
620.4149626 439.2984238 2040
625.6899797 439.2984238 2040
633.1300727 440.8058204 2047
636.2400138 439.2984238 2040
641.5150308 439.2984238 2040
646.7900479 439.2984238 2040
654.3025431 440.8058204 2047
661.8512394 442.3132169 2054
667.1624576 442.3132169 2054
674.7654556 443.8206135 2061
682.4046546 445.32801 2068
687.7520739 445.32801 2068
697.4565015 448.1274608 2081
707.5659001 451.1422539 2095
712.9831358 451.1422539 2095
721.1436664 452.8649928 2103
716.5621561 446.6200642 2074
717.4000052 443.8206135 2061
722.7293239 443.8206135 2061
725.5858573 442.3132169 2054
730.8970755 442.3132169 2054
736.2082936 442.3132169 2054
722.3858535 430.9000716 2001
727.5600246 430.9000716 2001
732.7341958 430.9000716 2001
1365.664069 781.0467565 3627
1375.04274 781.0467565 3627
1384.42141 781.0467565 3627
1508.701161 845.4341235 3926
1518.852983 845.4341235 3926
1519.268402 840.0505644 3901
1529.355579 840.0505644 3901
1539.442756 840.0505644 3901
1539.996809 834.8823476 3877
1550.021927 834.8823476 3877
1550.389803 829.7141309 3853
1550.633561 824.5459141 3829
1560.534561 824.5459141 3829
1560.592142 819.3776974 3805
1570.431083 819.3776974 3805
1580.270024 819.3776974 3805
1580.497268 814.424823 3782
8.09031225 260.8600043 1197
147.4127171 266.5261364 1223
150.5751416 266.5261364 1223
153.737566 266.5261364 1223
157.2848637 267.1799208 1226
160.4550455 267.1799208 1226
163.8921527 267.6157772 1228
167.0675061 267.6157772 1228
170.2428595 267.6157772 1228
173.841873 268.2695616 1231
177.3125955 268.7054179 1233
180.5008779 268.7054179 1233
184.1360925 269.3592024 1236
187.3321322 269.3592024 1236
190.83647 269.7950587 1238
194.5078857 270.4488432 1241
197.7168544 270.4488432 1241
202.8686998 273.0639811 1253
215.0293472 280.4735384 1287
218.3572624 280.4735384 1287
224.4411704 283.960389 1303
227.8104583 283.960389 1303
236.1475381 290.0623774 1331
241.2092905 292.0237308 1340
244.6742527 292.0237308 1340
250.7317141 295.074725 1354
255.3594633 296.3822939 1360
258.8761413 296.3822939 1360
264.1292424 298.3436473 1369
269.4288878 300.3050007 1378
272.9921101 300.3050007 1378
290.8045549 315.7778999 1449
395.4308881 413.4097144 1897
400.3361368 413.4097144 1897
405.2413855 413.4097144 1897
433.9295176 437.3818117 2007
439.1192035 437.3818117 2007
444.3088894 437.3818117 2007
449.4985753 437.3818117 2007
454.6882612 437.3818117 2007
461.481906 438.9073088 2014
468.0800292 440.2148777 2020
473.3033304 440.2148777 2020
478.5266316 440.2148777 2020
483.7499328 440.2148777 2020
488.973234 440.2148777 2020
494.1965352 440.2148777 2020
497.9364112 438.9073088 2014
501.3954343 437.3818117 2007
506.5851202 437.3818117 2007
511.7748061 437.3818117 2007
516.964492 437.3818117 2007
522.1541779 437.3818117 2007
525.76735 436.0742427 2001
530.9415211 436.0742427 2001
536.1156923 436.0742427 2001
536.1501796 431.9336078 1982
541.2752207 431.9336078 1982
546.4002617 431.9336078 1982
553.1949051 433.2411767 1988
560.0205781 434.5487456 1994
565.1766487 434.5487456 1994
574.0510369 437.3818117 2007
587.0331989 443.2658719 2034
588.2159569 440.2148777 2020
593.4392581 440.2148777 2020
598.6625593 440.2148777 2020
609.8649285 444.5734409 2040
615.1399455 444.5734409 2040
620.4149626 444.5734409 2040
625.6899797 444.5734409 2040
633.1300727 446.098938 2047
636.2400138 444.5734409 2040
641.5150308 444.5734409 2040
646.7900479 444.5734409 2040
654.3025431 446.098938 2047
661.8512394 447.6244351 2054
667.1624576 447.6244351 2054
674.7654556 449.1499322 2061
680.0947743 449.1499322 2061
685.424093 449.1499322 2061
695.1104201 451.9829982 2074
705.2017181 455.0339924 2088
710.6008532 455.0339924 2088
718.4003714 456.5594895 2095
714.4891701 450.6754293 2068
712.5268368 446.098938 2047
717.8199544 446.098938 2047
720.6402867 444.5734409 2040
725.9153038 444.5734409 2040
719.3622421 437.3818117 2007
710.833456 429.1005417 1969
715.9248818 429.1005417 1969
721.0163076 429.1005417 1969
1365.664069 790.4254265 3627
1375.04274 790.4254265 3627
1384.42141 790.4254265 3627
1508.701161 855.5859455 3926
1518.852983 855.5859455 3926
1519.268402 850.1377416 3901
1519.946573 844.9074658 3877
1529.971691 844.9074658 3877
1520.93056 834.4469143 3829
1530.831561 834.4469143 3829
1531.075318 829.2166385 3805
1531.599929 824.2042909 3782
1541.379397 824.2042909 3782
1551.158865 824.2042909 3782
1560.938332 824.2042909 3782
1570.7178 824.2042909 3782
1561.691775 814.3975238 3737
1571.354882 814.3975238 3737
1571.287346 809.3851762 3714
1580.89098 809.3851762 3714
1590.494614 809.3851762 3714
8.076794602 263.5141702 1195
14.20911746 262.6321144 1191
17.28879654 262.6321144 1191
29.53293473 261.9705726 1188
32.60485643 261.9705726 1188
123.1872232 258.6628633 1173
126.220358 258.6628633 1173
129.2534928 258.6628633 1173
139.8862201 261.5295447 1186
142.9529702 261.5295447 1186
146.0197203 261.5295447 1186
149.337881 261.9705726 1188
153.3078402 263.5141702 1195
156.3978625 263.5141702 1195
160.1551981 264.61674 1200
164.7546823 267.0423934 1211
167.8860772 267.0423934 1211
171.7235724 268.1449632 1216
177.3125955 271.8937003 1233
179.4761365 270.3501027 1226
182.6463183 270.3501027 1226
185.8165001 270.3501027 1226
189.2949799 270.7911306 1228
193.7242117 272.5552422 1236
196.9202515 272.5552422 1236
202.0591678 275.2014096 1248
207.4246354 278.0680909 1261
210.68532 278.0680909 1261
218.3572624 283.8014536 1287
223.5799226 286.2271071 1298
226.9362815 286.2271071 1298
234.7281689 291.7399558 1323
240.6692697 294.8271511 1337
244.1264745 294.8271511 1337
250.1761786 297.9143464 1351
254.7961704 299.2374301 1357
258.305091 299.2374301 1357
262.9716271 300.5605138 1363
268.8423228 303.2066812 1375
272.3977877 303.2066812 1375
287.3927693 315.7759764 1432
394.1801842 416.9918794 1891
399.0699181 416.9918794 1891
403.9596521 416.9918794 1891
433.9295176 442.5714976 2007
439.1192035 442.5714976 2007
444.3088894 442.5714976 2007
449.4985753 442.5714976 2007
454.6882612 442.5714976 2007
461.481906 444.1150952 2014
468.0800292 445.4381789 2020
473.3033304 445.4381789 2020
478.5266316 445.4381789 2020
483.7499328 445.4381789 2020
488.973234 445.4381789 2020
494.1965352 445.4381789 2020
497.9364112 444.1150952 2014
501.3954343 442.5714976 2007
506.5851202 442.5714976 2007
510.2448366 441.2484139 2001
515.4190077 441.2484139 2001
520.5931789 441.2484139 2001
520.7750563 437.0586488 1982
525.9000974 437.0586488 1982
531.0251385 437.0586488 1982
536.1501796 437.0586488 1982
541.2752207 437.0586488 1982
546.4002617 437.0586488 1982
553.1949051 438.3817325 1988
560.0205781 439.7048162 1994
565.1766487 439.7048162 1994
574.0510369 442.5714976 2007
588.7648602 449.8484579 2040
588.2159569 445.4381789 2020
593.4392581 445.4381789 2020
598.6625593 445.4381789 2020
609.8649285 449.8484579 2040
615.1399455 449.8484579 2040
620.4149626 449.8484579 2040
627.8369551 451.3920556 2047
633.1300727 451.3920556 2047
638.4231903 451.3920556 2047
643.7163079 451.3920556 2047
649.0094255 451.3920556 2047
654.3025431 451.3920556 2047
661.8512394 452.9356532 2054
667.1624576 452.9356532 2054
674.7654556 454.4792509 2061
680.0947743 454.4792509 2061
685.424093 454.4792509 2061
695.1104201 457.3459322 2074
705.2017181 460.4331275 2088
710.6008532 460.4331275 2088
718.4003714 461.9767252 2095
714.4891701 456.0228485 2068
712.5268368 451.3920556 2047
717.8199544 451.3920556 2047
720.6402867 449.8484579 2040
725.9153038 449.8484579 2040
719.3622421 442.5714976 2007
710.833456 434.1919675 1969
715.9248818 434.1919675 1969
721.0163076 434.1919675 1969
1519.946573 854.932584 3877
1529.971691 854.932584 3877
1520.93056 844.3479144 3829
1530.831561 844.3479144 3829
1531.075318 839.0555796 3805
1531.599929 833.9837588 3782
1541.379397 833.9837588 3782
1551.158865 833.9837588 3782
1560.938332 833.9837588 3782
1570.7178 833.9837588 3782
1561.691775 824.060631 3737
1571.354882 824.060631 3737
1571.287346 818.9888102 3714
1580.89098 818.9888102 3714
1590.494614 818.9888102 3714
1600.098248 818.9888102 3714
1609.701882 818.9888102 3714
1619.305516 818.9888102 3714
8.076794602 266.6041925 1195
14.20911746 265.7117935 1191
17.24524793 265.0424943 1188
20.31716963 265.0424943 1188
23.38909133 265.0424943 1188
26.46101303 265.0424943 1188
29.53293473 265.0424943 1188
32.5499661 264.5962948 1186
35.61671621 264.5962948 1186
38.68346632 264.5962948 1186
56.98770399 264.1500953 1184
60.04928252 264.1500953 1184
63.11086105 264.1500953 1184
123.1872232 261.6959981 1173
124.4986822 258.1264022 1157
127.4904443 258.1264022 1157
139.8862201 264.5962948 1186
142.9529702 264.5962948 1186
146.0197203 264.5962948 1186
147.7037123 262.1421976 1175
150.7420186 262.1421976 1175
153.780325 262.1421976 1175
159.4878847 266.6041925 1195
162.577907 266.6041925 1195
165.6679292 266.6041925 1195
171.7235724 271.2892871 1216
177.7194369 270.8430876 1214
180.8585892 270.8430876 1214
183.9977415 270.8430876 1214
187.9076389 271.9585863 1219
192.1568637 273.5202845 1226
195.3270456 273.5202845 1226
200.9258232 276.8667806 1241
206.108698 279.5439775 1253
209.3486962 279.5439775 1253
215.1336509 282.8904737 1268
223.5799226 289.583466 1298
226.9362815 289.583466 1298
233.1313787 293.1530618 1314
239.5892281 296.9457575 1331
243.0309182 296.9457575 1331
249.620643 300.7384531 1348
254.2328774 302.0770515 1354
257.7340407 302.0770515 1354
262.9716271 304.0849492 1363
268.8423228 306.7621461 1375
272.3977877 306.7621461 1375
287.3927693 319.4788315 1432
395.2605312 428.3515059 1920
394.1801842 421.8816133 1891
395.4822985 418.0889177 1874
400.328074 418.0889177 1874
433.9295176 447.7611835 2007
439.1192035 447.7611835 2007
444.3088894 447.7611835 2007
449.4985753 447.7611835 2007
454.6882612 447.7611835 2007
461.481906 449.3228817 2014
468.0800292 450.6614801 2020
473.3033304 450.6614801 2020
478.5266316 450.6614801 2020
483.7499328 450.6614801 2020
487.5208383 449.3228817 2014
492.7286247 449.3228817 2014
496.2057484 447.7611835 2007
499.8964943 446.422585 2001
505.0706654 446.422585 2001
508.4598721 444.8608868 1994
513.6159427 444.8608868 1994
518.7720133 444.8608868 1994
514.2062488 436.6061964 1957
519.2666451 436.6061964 1957
519.2364876 432.3673012 1938
522.6246957 431.0287028 1932
527.6204472 431.0287028 1932
532.6161986 431.0287028 1932
539.2815524 432.3673012 1938
547.9439056 435.2675979 1951
552.9887871 435.2675979 1951
559.7498152 436.6061964 1957
564.8102115 436.6061964 1957
588.2159569 450.6614801 2020
593.4392581 450.6614801 2020
598.6625593 450.6614801 2020
603.8858605 450.6614801 2020
609.1091618 450.6614801 2020
614.332463 450.6614801 2020
625.6899797 455.123475 2040
630.9649967 455.123475 2040
636.2400138 455.123475 2040
641.5150308 455.123475 2040
646.7900479 455.123475 2040
654.3025431 456.6851732 2047
659.5956607 456.6851732 2047
664.8887783 456.6851732 2047
670.1818959 456.6851732 2047
677.7848939 458.2468714 2054
683.0961121 458.2468714 2054
693.0994931 461.3702678 2068
702.8375361 464.2705644 2081
708.2185707 464.2705644 2081
718.4003714 467.3939608 2095
714.4891701 461.3702678 2068
712.5268368 456.6851732 2047
717.8199544 456.6851732 2047
720.6402867 455.123475 2040
725.9153038 455.123475 2040
719.3622421 447.7611835 2007
697.4759965 431.0287028 1932
702.4717479 431.0287028 1932
690.2568511 420.5430149 1885
695.1310703 420.5430149 1885
700.0052895 420.5430149 1885
1519.946573 864.9577022 3877
1529.971691 864.9577022 3877
1520.93056 854.2489146 3829
1530.831561 854.2489146 3829
1531.075318 848.8945208 3805
1531.599929 843.7632267 3782
1541.379397 843.7632267 3782
1551.158865 843.7632267 3782
1560.938332 843.7632267 3782
1570.7178 843.7632267 3782
1561.691775 833.7237383 3737
1571.354882 833.7237383 3737
1571.287346 828.5924442 3714
1580.89098 828.5924442 3714
1590.494614 828.5924442 3714
1600.098248 828.5924442 3714
1609.701882 828.5924442 3714
1619.305516 828.5924442 3714
1619.260253 823.6842498 3692
1628.807 823.6842498 3692
1638.353747 823.6842498 3692
1647.900493 823.6842498 3692
8.063276954 269.2428436 1193
11.14812762 269.2428436 1193
14.17332623 268.114416 1188
17.24524793 268.114416 1188
20.31716963 268.114416 1188
23.38909133 268.114416 1188
26.46101303 268.114416 1188
29.53293473 268.114416 1188
32.5499661 267.6630449 1186
35.61671621 267.6630449 1186
38.68346632 267.6630449 1186
56.98770399 267.2116738 1184
60.04928252 267.2116738 1184
63.11086105 267.2116738 1184
124.4986822 261.1181644 1157
127.4904443 261.1181644 1157
147.7037123 265.180504 1175
150.7420186 265.180504 1175
153.780325 265.180504 1175
159.4878847 269.6942147 1195
162.577907 269.6942147 1195
165.6679292 269.6942147 1195
177.7194369 273.9822399 1214
180.8585892 273.9822399 1214
183.9977415 273.9822399 1214
187.9076389 275.1106676 1219
192.1568637 276.6904663 1226
195.3270456 276.6904663 1226
200.9258232 280.0757493 1241
206.108698 282.7839758 1253
209.3486962 282.7839758 1253
215.1336509 286.1692588 1268
229.7336471 296.5507934 1314
233.1313787 296.5507934 1314
239.5892281 300.3874475 1331
243.0309182 300.3874475 1331
249.620643 304.2241016 1348
254.2328774 305.5782148 1354
257.7340407 305.5782148 1354
262.9716271 307.6093846 1363
285.670989 325.4385419 1442
289.399702 325.4385419 1442
395.2605312 433.3162278 1920
400.2252531 433.3162278 1920
395.4822985 422.9346932 1874
400.328074 422.9346932 1874
433.9295176 452.9508694 2007
439.1192035 452.9508694 2007
444.3088894 452.9508694 2007
449.4985753 452.9508694 2007
454.6882612 452.9508694 2007
461.481906 454.5306681 2014
468.0800292 455.8847813 2020
473.3033304 455.8847813 2020
478.5266316 455.8847813 2020
483.7499328 455.8847813 2020
487.5208383 454.5306681 2014
492.7286247 454.5306681 2014
496.2057484 452.9508694 2007
499.8964943 451.5967562 2001
505.0706654 451.5967562 2001
508.4598721 450.0169574 1994
513.6159427 450.0169574 1994
518.7720133 450.0169574 1994
514.2062488 441.6665926 1957
519.2666451 441.6665926 1957
519.2364876 437.3785674 1938
522.6246957 436.0244542 1932
527.6204472 436.0244542 1932
532.6161986 436.0244542 1932
539.2815524 437.3785674 1938
547.9439056 440.3124794 1951
552.9887871 440.3124794 1951
559.7498152 441.6665926 1957
564.8102115 441.6665926 1957
603.8858605 455.8847813 2020
609.1091618 455.8847813 2020
614.332463 455.8847813 2020
625.6899797 460.3984921 2040
630.9649967 460.3984921 2040
636.2400138 460.3984921 2040
641.5150308 460.3984921 2040
646.7900479 460.3984921 2040
654.3025431 461.9782908 2047
659.5956607 461.9782908 2047
664.8887783 461.9782908 2047
670.1818959 461.9782908 2047
677.7848939 463.5580895 2054
683.0961121 463.5580895 2054
693.0994931 466.717687 2068
702.8375361 469.651599 2081
708.2185707 469.651599 2081
8.049759306 271.8711516 1191
11.12943838 271.8711516 1191
14.17332623 271.1863377 1188
17.21621553 270.729795 1186
