# .PCD v0.7 - Point Cloud Data file format
VERSION 0.7
FIELDS x y z
SIZE 4 4 4
TYPE F F F
COUNT 1 1 1
WIDTH 1673
HEIGHT 1
VIEWPOINT 0 0 0 1 0 0 0
POINTS 1673
DATA ascii
212.2294863 475.8038443 1100
214.6828148 474.9387464 1098
217.1258002 474.0736485 1096
219.959829 474.0736485 1096
222.3872996 473.2085506 1094
225.2161568 473.2085506 1094
227.6281127 472.3434527 1092
229.6076525 470.6132569 1088
232.420995 470.6132569 1088
234.8019213 469.748159 1086
236.7349169 468.0179632 1082
239.5327445 468.0179632 1082
242.1066068 467.5854143 1081
244.9018487 467.5854143 1081
246.7805426 465.8552185 1077
249.1019957 464.9901206 1075
251.8817229 464.9901206 1075
254.1876613 464.1250227 1073
256.4832565 463.2599248 1071
259.2526404 463.2599248 1071
262.0220244 463.2599248 1071
264.7914083 463.2599248 1071
267.0611456 462.3948269 1069
269.825358 462.3948269 1069
273.0995602 463.2599248 1071
275.8689442 463.2599248 1071
278.6383281 463.2599248 1071
281.9332167 464.1250227 1073
284.7077722 464.1250227 1073
288.0181755 464.9901206 1075
290.7979026 464.9901206 1075
293.5776298 464.9901206 1075
296.9087194 465.8552185 1077
299.6936181 465.8552185 1077
303.0402225 466.7203164 1079
306.3971701 467.5854143 1081
309.192412 467.5854143 1081
311.9876539 467.5854143 1081
315.0740918 468.0179632 1082
317.8719195 468.0179632 1082
320.6697471 468.0179632 1082
323.4675748 468.0179632 1082
326.8684809 468.8830611 1084
329.6714801 468.8830611 1084
332.4744794 468.8830611 1084
335.2774786 468.8830611 1084
338.0804779 468.8830611 1084
340.8834772 468.8830611 1084
343.6864764 468.8830611 1084
346.4894757 468.8830611 1084
348.6480239 468.0179632 1082
351.4458516 468.0179632 1082
354.2436792 468.0179632 1082
356.711524 467.5854143 1081
359.5067659 467.5854143 1081
361.6316988 466.7203164 1079
364.4217691 466.7203164 1079
366.5311872 465.8552185 1077
368.6302622 464.9901206 1075
371.4099893 464.9901206 1075
373.4935495 464.1250227 1073
375.5667666 463.2599248 1071
378.3361505 463.2599248 1071
380.3938528 462.3948269 1069
383.1580652 462.3948269 1069
385.5612651 461.962278 1068
387.5956953 461.0971801 1066
390.3521503 461.0971801 1066
392.3710657 460.2320822 1064
394.3796379 459.3669843 1062
397.1257497 459.3669843 1062
399.1188072 458.5018864 1060
401.8597474 458.5018864 1060
403.4555914 457.2042395 1057
405.4202051 456.3391416 1055
408.1482164 456.3391416 1055
410.0973154 455.4740437 1053
412.8201551 455.4740437 1053
414.3591116 454.1763969 1050
416.2797669 453.311299 1048
418.9896776 453.311299 1048
420.8948181 452.4462011 1046
421.9796737 450.7160053 1042
424.6740696 450.7160053 1042
426.9583231 450.2834563 1041
429.6501333 450.2834563 1041
431.5113153 449.4183584 1039
432.9442543 448.1207116 1036
435.6231356 448.1207116 1036
437.4558739 447.2556137 1034
438.4269546 445.5254179 1030
441.090321 445.5254179 1030
443.3228586 445.0928689 1029
445.9836393 445.0928689 1029
446.9004183 443.3626731 1025
448.2350972 442.0650263 1022
450.8777773 442.0650263 1022
451.7454263 440.3348305 1018
454.3777633 440.3348305 1018
456.5611708 439.9022815 1017
457.8363765 438.6046347 1014
460.4583703 438.6046347 1014
462.1669905 437.7395368 1012
464.7838127 437.7395368 1012
467.4006349 437.7395368 1012
469.0885688 436.8744389 1010
471.7002194 436.8744389 1010
473.8422543 436.4418899 1009
476.4513191 436.4418899 1009
479.060384 436.4418899 1009
481.6694488 436.4418899 1009
483.3185958 435.576792 1007
485.922489 435.576792 1007
488.5263823 435.576792 1007
491.1302755 435.576792 1007
492.7535646 434.7116941 1005
495.3522862 434.7116941 1005
497.9510079 434.7116941 1005
500.5497295 434.7116941 1005
502.6478059 434.2791452 1004
505.2439418 434.2791452 1004
506.828444 433.4140473 1002
509.4194083 433.4140473 1002
512.0103725 433.4140473 1002
513.5741884 432.5489494 1000
516.1599811 432.5489494 1000
518.7457738 432.5489494 1000
520.8102349 432.1164004 999
523.3934418 432.1164004 999
524.9236423 431.2513025 997
527.5016776 431.2513025 997
529.5480382 430.8187536 996
532.1234877 430.8187536 996
534.6989372 430.8187536 996
536.1955225 429.9536557 994
537.6817646 429.0885578 992
540.2468709 429.0885578 992
542.2647878 428.6560088 991
544.8273083 428.6560088 991
546.2851067 427.7909109 989
547.177615 426.4932641 986
549.7272066 426.4932641 986
551.7166797 426.0607152 985
554.2636855 426.0607152 985
555.6801112 425.1956173 983
557.0861937 424.3305194 981
559.6228564 424.3305194 981
561.5864716 423.8979704 980
562.969282 423.0328725 978
565.4981872 423.0328725 978
567.4462876 422.6003236 977
569.9726071 422.6003236 977
571.3269738 421.7352257 975
573.2595594 421.3026767 974
575.7781215 421.3026767 974
577.109216 420.4375788 972
579.026287 420.0050299 971
581.5370917 420.0050299 971
584.0478963 420.0050299 971
586.558701 420.0050299 971
587.8561803 419.139932 969
589.7525649 418.707383 968
592.2556122 418.707383 968
594.7586595 418.707383 968
597.2617068 418.707383 968
599.7647541 418.707383 968
602.2678014 418.707383 968
604.7708487 418.707383 968
607.273896 418.707383 968
608.5170736 417.8422851 966
611.0149494 417.8422851 966
612.8777186 417.4097362 965
615.3730086 417.4097362 965
617.8682985 417.4097362 965
619.0778608 416.5446383 963
621.5679791 416.5446383 963
624.0580975 416.5446383 963
625.8975946 416.1120893 962
628.3851272 416.1120893 962
629.5610742 415.2469914 960
632.0434351 415.2469914 960
633.8648317 414.8144425 959
635.0175066 413.9493446 957
637.4921102 413.9493446 957
639.9667138 413.9493446 957
640.4273947 412.6516977 954
642.8942409 412.6516977 954
644.684608 412.2191488 953
647.1488684 412.2191488 953
648.2498274 411.3540509 951
650.0246798 410.9215019 950
652.4811828 410.9215019 950
654.9376859 410.9215019 950
656.0102011 410.056404 948
658.4615326 410.056404 948
660.912864 410.056404 948
663.3641955 410.056404 948
665.815527 410.056404 948
668.2668584 410.056404 948
670.7181899 410.056404 948
673.1695213 410.056404 948
674.9081726 409.6238551 947
677.3569182 409.6238551 947
679.8056639 409.6238551 947
682.9748472 410.056404 948
685.4261786 410.056404 948
687.8775101 410.056404 948
690.3288415 410.056404 948
692.780173 410.056404 948
695.2315044 410.056404 948
697.6828359 410.056404 948
700.1341674 410.056404 948
704.0677467 410.9215019 950
706.5242497 410.9215019 950
708.9807528 410.9215019 950
712.1861371 411.3540509 951
714.645226 411.3540509 951
717.1043148 411.3540509 951
-66.84186885 551.7508529 1268
-63.46282651 550.8805835 1266
-60.18921298 550.8805835 1266
-56.6908143 548.7049097 1261
-53.21827356 546.529236 1256
-49.97051795 546.529236 1256
-46.42516514 543.0481581 1248
-43.02502659 540.8724844 1243
-39.81088629 540.8724844 1243
-36.44953463 538.6968107 1238
-33.24832329 538.6968107 1238
-29.92575852 536.521137 1233
-26.58568188 533.4751938 1226
-23.41550006 533.4751938 1226
-20.12972507 530.4292506 1219
-16.93586125 529.1238464 1216
-13.79153735 529.1238464 1216
-10.6034338 526.9481726 1211
-7.472038868 526.9481726 1211
-4.32630655 525.2076337 1207
-1.20026202 523.03196 1202
1.907860777 523.03196 1202
5.007637511 522.1616905 1200
8.110588722 522.1616905 1200
11.18550608 520.8562863 1197
14.2568391 519.9860168 1195
17.34686134 519.9860168 1195
20.4026796 519.1157473 1193
23.44815469 518.2454778 1191
26.52783377 518.2454778 1191
29.53293473 516.9400736 1188
32.60485643 516.9400736 1188
35.61671621 516.0698041 1186
38.52038257 513.8941304 1181
41.57420372 513.8941304 1181
44.5524482 513.0238609 1179
47.5203495 512.1535914 1177
50.56382748 512.1535914 1177
53.51621404 511.2833219 1175
56.55452043 511.2833219 1175
59.49139223 510.4130524 1173
62.36461776 509.1076482 1170
65.38999519 509.1076482 1170
68.41537262 509.1076482 1170
71.44075005 509.1076482 1170
74.46612748 509.1076482 1170
77.49150491 509.1076482 1170
80.51688234 509.1076482 1170
83.39945249 508.2373787 1168
86.41965834 508.2373787 1168
89.43986418 508.2373787 1168
92.46007003 508.2373787 1168
95.31678225 507.3671093 1166
98.33181651 507.3671093 1166
101.3468508 507.3671093 1166
104.361885 507.3671093 1166
107.0085594 505.6265703 1162
109.7292231 504.3211661 1159
112.7261568 504.3211661 1159
115.3237011 502.5806271 1155
118.1054253 501.7103576 1153
121.0868443 501.7103576 1153
123.8530538 500.8400881 1151
126.8293011 500.8400881 1151
129.5799959 499.9698186 1149
132.3203474 499.0995492 1147
135.2862516 499.0995492 1147
137.8905547 497.7941449 1144
140.3562236 496.053606 1140
143.3040272 496.053606 1140
145.9952487 495.1833365 1138
148.9378808 495.1833365 1138
151.3466622 493.4427975 1134
154.0068541 492.572528 1132
156.9339715 492.572528 1132
159.5786487 491.7022585 1130
161.9253711 489.9617196 1126
164.8369736 489.9617196 1126
167.4506213 489.0914501 1124
170.3570523 489.0914501 1124
172.9551852 488.2211806 1122
175.2295054 486.4806416 1118
178.1204216 486.4806416 1118
180.6875251 485.6103721 1116
183.2442854 484.7401027 1114
186.1248584 484.7401027 1114
188.6661039 483.8698332 1112
191.5415054 483.8698332 1112
194.0672361 482.9995637 1110
196.5826237 482.1292942 1108
199.447682 482.1292942 1108
201.9475548 481.2590247 1106
204.8074415 481.2590247 1106
206.916271 479.5184858 1102
209.3851143 478.6482163 1100
212.2294863 478.6482163 1100
214.6828148 477.7779468 1098
217.5220152 477.7779468 1098
220.3612155 477.7779468 1098
222.7938578 476.9076773 1096
225.6278865 476.9076773 1096
227.6281127 475.1671383 1092
230.0297254 474.2968689 1090
232.8482394 474.2968689 1090
234.8019213 472.5563299 1086
237.1725045 471.6860604 1084
239.9755038 471.6860604 1084
242.1066068 470.3806562 1081
244.9018487 470.3806562 1081
247.2388166 469.5103867 1079
249.1019957 467.7698477 1075
251.8817229 467.7698477 1075
254.1876613 466.8995782 1073
256.4832565 466.0293088 1071
259.2526404 466.0293088 1071
262.0220244 466.0293088 1071
264.7914083 466.0293088 1071
267.5607923 466.0293088 1071
270.3301762 466.0293088 1071
273.0995602 466.0293088 1071
275.8689442 466.0293088 1071
278.6383281 466.0293088 1071
281.9332167 466.8995782 1073
284.7077722 466.8995782 1073
288.0181755 467.7698477 1075
290.7979026 467.7698477 1075
293.5776298 467.7698477 1075
296.9087194 468.6401172 1077
299.6936181 468.6401172 1077
303.0402225 469.5103867 1079
306.3971701 470.3806562 1081
309.192412 470.3806562 1081
311.9876539 470.3806562 1081
315.0740918 470.8157909 1082
317.8719195 470.8157909 1082
320.6697471 470.8157909 1082
323.4675748 470.8157909 1082
326.8684809 471.6860604 1084
329.6714801 471.6860604 1084
332.4744794 471.6860604 1084
335.2774786 471.6860604 1084
338.0804779 471.6860604 1084
340.8834772 471.6860604 1084
343.6864764 471.6860604 1084
346.4894757 471.6860604 1084
348.6480239 470.8157909 1082
351.4458516 470.8157909 1082
354.2436792 470.8157909 1082
356.711524 470.3806562 1081
359.5067659 470.3806562 1081
361.6316988 469.5103867 1079
364.4217691 469.5103867 1079
366.5311872 468.6401172 1077
368.6302622 467.7698477 1075
371.4099893 467.7698477 1075
373.4935495 466.8995782 1073
375.5667666 466.0293088 1071
378.3361505 466.0293088 1071
380.3938528 465.1590393 1069
383.1580652 465.1590393 1069
385.5612651 464.7239045 1068
387.5956953 463.853635 1066
390.3521503 463.853635 1066
392.3710657 462.9833656 1064
394.3796379 462.1130961 1062
397.1257497 462.1130961 1062
399.1188072 461.2428266 1060
401.8597474 461.2428266 1060
403.4555914 459.9374224 1057
405.4202051 459.0671529 1055
408.1482164 459.0671529 1055
410.0973154 458.1968834 1053
412.8201551 458.1968834 1053
414.3591116 456.8914792 1050
416.2797669 456.0212097 1048
418.9896776 456.0212097 1048
420.8948181 455.1509402 1046
421.9796737 453.4104012 1042
424.6740696 453.4104012 1042
426.9583231 452.9752665 1041
429.6501333 452.9752665 1041
431.5113153 452.104997 1039
432.9442543 450.7995928 1036
435.6231356 450.7995928 1036
437.4558739 449.9293233 1034
438.4269546 448.1887843 1030
441.090321 448.1887843 1030
443.3228586 447.7536496 1029
445.9836393 447.7536496 1029
446.9004183 446.0131106 1025
448.2350972 444.7077064 1022
450.8777773 444.7077064 1022
451.7454263 442.9671674 1018
454.3777633 442.9671674 1018
456.5611708 442.5320327 1017
457.8363765 441.2266285 1014
460.4583703 441.2266285 1014
462.1669905 440.356359 1012
464.7838127 440.356359 1012
467.4006349 440.356359 1012
469.0885688 439.4860895 1010
471.7002194 439.4860895 1010
473.8422543 439.0509547 1009
476.4513191 439.0509547 1009
479.060384 439.0509547 1009
481.6694488 439.0509547 1009
483.3185958 438.1806853 1007
485.922489 438.1806853 1007
488.5263823 438.1806853 1007
491.1302755 438.1806853 1007
492.7535646 437.3104158 1005
495.3522862 437.3104158 1005
497.9510079 437.3104158 1005
500.5497295 437.3104158 1005
502.6478059 436.875281 1004
505.2439418 436.875281 1004
506.828444 436.0050116 1002
509.4194083 436.0050116 1002
512.0103725 436.0050116 1002
513.5741884 435.1347421 1000
516.1599811 435.1347421 1000
518.7457738 435.1347421 1000
520.8102349 434.6996073 999
523.3934418 434.6996073 999
524.9236423 433.8293378 997
527.5016776 433.8293378 997
529.5480382 433.3942031 996
532.1234877 433.3942031 996
534.6989372 433.3942031 996
536.1955225 432.5239336 994
537.6817646 431.6536641 992
540.2468709 431.6536641 992
542.2647878 431.2185294 991
544.8273083 431.2185294 991
546.2851067 430.3482599 989
547.177615 429.0428557 986
549.7272066 429.0428557 986
551.7166797 428.6077209 985
554.2636855 428.6077209 985
555.6801112 427.7374515 983
557.0861937 426.867182 981
559.6228564 426.867182 981
561.5864716 426.4320472 980
562.969282 425.5617777 978
565.4981872 425.5617777 978
567.4462876 425.126643 977
569.9726071 425.126643 977
571.3269738 424.2563735 975
573.2595594 423.8212388 974
575.7781215 423.8212388 974
577.109216 422.9509693 972
579.026287 422.5158345 971
581.5370917 422.5158345 971
584.0478963 422.5158345 971
586.558701 422.5158345 971
587.8561803 421.6455651 969
589.7525649 421.2104303 968
592.2556122 421.2104303 968
594.7586595 421.2104303 968
597.2617068 421.2104303 968
599.7647541 421.2104303 968
602.2678014 421.2104303 968
604.7708487 421.2104303 968
606.0191979 420.3401608 966
607.8871388 419.9050261 965
610.3824287 419.9050261 965
612.8777186 419.9050261 965
615.3730086 419.9050261 965
616.5877424 419.0347566 963
618.434997 418.5996219 962
620.9225295 418.5996219 962
622.1139913 417.7293524 960
623.945731 417.2942176 959
626.4255062 417.2942176 959
628.9052814 417.2942176 959
631.3850566 417.2942176 959
632.542903 416.4239482 957
634.3539564 415.9888134 956
636.8259742 415.9888134 956
637.9605485 415.1185439 954
639.7560872 414.6834092 953
642.2203476 414.6834092 953
643.3316498 413.8131397 951
645.7907386 413.8131397 951
647.5681767 413.378005 950
648.6562068 412.5077355 948
651.1075382 412.5077355 948
653.5588697 412.5077355 948
655.3182072 412.0726007 947
657.7669529 412.0726007 947
660.2156986 412.0726007 947
662.6644442 412.0726007 947
665.1131899 412.0726007 947
667.5619356 412.0726007 947
670.0106812 412.0726007 947
672.4594269 412.0726007 947
674.9081726 412.0726007 947
677.3569182 412.0726007 947
679.8056639 412.0726007 947
682.9748472 412.5077355 948
685.4261786 412.5077355 948
687.8775101 412.5077355 948
690.3288415 412.5077355 948
692.780173 412.5077355 948
695.2315044 412.5077355 948
699.1547406 413.378005 950
701.6112437 413.378005 950
704.0677467 413.378005 950
706.5242497 413.378005 950
708.9807528 413.378005 950
712.1861371 413.8131397 951
714.645226 413.8131397 951
717.1043148 413.8131397 951
-67.1581553 557.6559613 1274
-63.71346958 556.3427997 1271
-60.28429862 555.0296381 1268
-56.78072836 552.8410354 1263
-53.30301603 550.6524327 1258
-50.05008884 550.6524327 1258
-46.6111634 548.46383 1253
-43.12886816 545.3997863 1246
-39.90697049 545.3997863 1246
-36.53786145 543.2111836 1241
-33.32889274 543.2111836 1241
-29.92575852 539.7094193 1233
-26.69410636 538.8339783 1231
-23.51099558 538.8339783 1231
-20.19577831 535.332214 1223
-16.9776438 533.5813319 1219
-13.82556253 533.5813319 1219
-10.64721346 532.2681702 1216
-7.502889565 532.2681702 1216
-4.333475244 529.2041265 1209
-1.202259128 527.0155238 1204
1.911035254 527.0155238 1204
5.015983573 526.1400828 1202
8.124106369 526.1400828 1202
11.18550608 523.9514801 1197
14.2568391 523.076039 1195
17.34686134 523.076039 1195
20.4026796 522.2005979 1193
23.44815469 521.3251569 1191
26.52783377 521.3251569 1191
29.53293473 520.0119953 1188
32.60485643 520.0119953 1188
35.61671621 519.1365542 1186
38.52038257 516.9479515 1181
41.57420372 516.9479515 1181
44.5524482 516.0725105 1179
47.5203495 515.1970694 1177
50.56382748 515.1970694 1177
53.51621404 514.3216283 1175
56.55452043 514.3216283 1175
59.49139223 513.4461873 1173
62.36461776 512.1330256 1170
65.38999519 512.1330256 1170
68.41537262 512.1330256 1170
71.44075005 512.1330256 1170
74.46612748 512.1330256 1170
77.49150491 512.1330256 1170
80.51688234 512.1330256 1170
83.39945249 511.2575846 1168
86.41965834 511.2575846 1168
89.43986418 511.2575846 1168
92.46007003 511.2575846 1168
95.31678225 510.3821435 1166
98.33181651 510.3821435 1166
101.3468508 510.3821435 1166
104.361885 510.3821435 1166
107.0085594 508.6312614 1162
109.7292231 507.3180998 1159
112.7261568 507.3180998 1159
115.3237011 505.5672176 1155
118.1054253 504.6917766 1153
121.0868443 504.6917766 1153
123.8530538 503.8163355 1151
126.8293011 503.8163355 1151
129.5799959 502.9408944 1149
132.3203474 502.0654534 1147
135.2862516 502.0654534 1147
137.6494873 499.8768507 1142
140.1099846 498.1259685 1138
143.0526166 498.1259685 1138
145.7386665 497.2505275 1136
148.676127 497.2505275 1136
151.3466622 496.3750864 1134
154.0068541 495.4996453 1132
156.9339715 495.4996453 1132
159.2962086 493.7487632 1128
161.9253711 492.8733221 1126
164.8369736 492.8733221 1126
167.4506213 491.9978811 1124
170.3570523 491.9978811 1124
172.6468872 490.2469989 1120
175.2295054 489.3715578 1118
178.1204216 489.3715578 1118
180.6875251 488.4961168 1116
183.2442854 487.6206757 1114
186.1248584 487.6206757 1114
188.6661039 486.7452346 1112
191.5415054 486.7452346 1112
194.0672361 485.8697936 1110
196.5826237 484.9943525 1108
199.447682 484.9943525 1108
201.9475548 484.1189114 1106
204.8074415 484.1189114 1106
206.916271 482.3680293 1102
209.3851143 481.4925882 1100
212.2294863 481.4925882 1100
214.6828148 480.6171471 1098
217.5220152 480.6171471 1098
220.3612155 480.6171471 1098
222.7938578 479.7417061 1096
225.6278865 479.7417061 1096
227.6281127 477.9908239 1092
230.0297254 477.1153829 1090
232.8482394 477.1153829 1090
234.8019213 475.3645007 1086
237.1725045 474.4890597 1084
239.9755038 474.4890597 1084
242.1066068 473.1758981 1081
244.9018487 473.1758981 1081
247.2388166 472.300457 1079
249.1019957 470.5495748 1075
251.8817229 470.5495748 1075
254.1876613 469.6741338 1073
256.4832565 468.7986927 1071
259.2526404 468.7986927 1071
262.0220244 468.7986927 1071
264.7914083 468.7986927 1071
267.5607923 468.7986927 1071
270.3301762 468.7986927 1071
273.0995602 468.7986927 1071
275.8689442 468.7986927 1071
278.6383281 468.7986927 1071
281.9332167 469.6741338 1073
284.7077722 469.6741338 1073
288.0181755 470.5495748 1075
290.7979026 470.5495748 1075
293.5776298 470.5495748 1075
296.9087194 471.4250159 1077
299.6936181 471.4250159 1077
303.0402225 472.300457 1079
306.3971701 473.1758981 1081
309.192412 473.1758981 1081
311.9876539 473.1758981 1081
314.7828958 473.1758981 1081
317.5781376 473.1758981 1081
320.3733795 473.1758981 1081
323.1686214 473.1758981 1081
326.2654025 473.6136186 1082
329.0632302 473.6136186 1082
331.8610578 473.6136186 1082
334.6588855 473.6136186 1082
337.4567132 473.6136186 1082
340.2545409 473.6136186 1082
343.0523685 473.6136186 1082
345.5305565 473.1758981 1081
348.3257984 473.1758981 1081
351.1210402 473.1758981 1081
353.2614879 472.300457 1079
355.3915924 471.4250159 1077
358.1764911 471.4250159 1077
360.2910808 470.5495748 1075
363.0708079 470.5495748 1075
365.1698829 469.6741338 1073
367.9444384 469.6741338 1073
370.718994 469.6741338 1073
372.7973826 468.7986927 1071
374.8654281 467.9232516 1069
377.6296404 467.9232516 1069
380.038012 467.4855311 1068
382.7996386 467.4855311 1068
384.8392403 466.61009 1066
386.8684989 465.734649 1064
389.6197823 465.734649 1064
391.6335261 464.8592079 1062
394.3796379 464.8592079 1062
395.6299842 463.1083258 1058
397.9892257 462.6706052 1057
400.7224085 462.6706052 1057
402.6921938 461.7951642 1055
404.651636 460.9197231 1053
407.3744757 460.9197231 1053
409.3184031 460.044282 1051
412.0360712 460.044282 1051
414.3591116 459.6065615 1050
415.4853398 457.8556793 1046
418.190079 457.8556793 1046
420.0900479 456.9802383 1044
421.9796737 456.1047972 1042
424.6740696 456.1047972 1042
426.9583231 455.6670767 1041
429.6501333 455.6670767 1041
430.6806872 453.9161945 1037
432.9442543 453.478474 1036
435.6231356 453.478474 1036
436.609731 451.7275919 1032
438.4269546 450.8521508 1030
441.090321 450.8521508 1030
442.461201 449.5389892 1027
445.1168101 449.5389892 1027
446.4644179 448.2258276 1024
447.3579248 446.4749454 1020
449.9954334 446.4749454 1020
451.7454263 445.5995044 1018
454.3777633 445.5995044 1018
455.6633121 444.2863428 1015
457.8363765 443.8486222 1014
460.4583703 443.8486222 1014
462.1669905 442.9731812 1012
463.8652676 442.0977401 1010
466.4769182 442.0977401 1010
468.6241247 441.6600196 1009
471.2331895 441.6600196 1009
473.8422543 441.6600196 1009
475.5069161 440.7845785 1007
478.1108094 440.7845785 1007
480.7147026 440.7845785 1007
483.3185958 440.7845785 1007
485.922489 440.7845785 1007
488.5263823 440.7845785 1007
491.1302755 440.7845785 1007
492.7535646 439.9091374 1005
495.3522862 439.9091374 1005
497.9510079 439.9091374 1005
500.0516701 439.4714169 1004
501.6465155 438.5959758 1002
504.2374797 438.5959758 1002
506.828444 438.5959758 1002
509.4194083 438.5959758 1002
510.9883957 437.7205347 1000
513.5741884 437.7205347 1000
516.1599811 437.7205347 1000
518.227028 437.2828142 999
519.7675717 436.4073731 997
522.345607 436.4073731 997
524.3971392 435.9696526 996
526.9725887 435.9696526 996
529.5480382 435.9696526 996
531.0549666 435.0942115 994
533.6252446 435.0942115 994
535.1166582 434.2187705 992
537.6817646 434.2187705 992
539.7022672 433.7810499 991
541.1704088 432.9056089 989
543.7277577 432.9056089 989
544.6280234 431.5924473 986
546.6226682 431.1547267 985
549.1696739 431.1547267 985
550.5964428 430.2792857 983
553.138277 430.2792857 983
554.5495311 429.4038446 981
556.5183179 428.966124 980
559.0523947 428.966124 980
561.5864716 428.966124 980
562.969282 428.090683 978
565.4981872 428.090683 978
567.4462876 427.6529624 977
569.9726071 427.6529624 977
571.3269738 426.7775214 975
573.2595594 426.3398008 974
575.7781215 426.3398008 974
577.109216 425.4643598 972
579.026287 425.0266392 971
581.5370917 425.0266392 971
584.0478963 425.0266392 971
586.558701 425.0266392 971
587.8561803 424.1511982 969
590.3618134 424.1511982 969
592.8674465 424.1511982 969
595.3730796 424.1511982 969
597.2617068 423.7134776 968
599.7647541 423.7134776 968
602.2678014 423.7134776 968
604.7708487 423.7134776 968
606.0191979 422.8380366 966
607.8871388 422.400316 965
610.3824287 422.400316 965
612.8777186 422.400316 965
615.3730086 422.400316 965
616.5877424 421.524875 963
618.434997 421.0871544 962
620.9225295 421.0871544 962
622.1139913 420.2117134 960
623.945731 419.7739928 959
626.4255062 419.7739928 959
628.9052814 419.7739928 959
631.3850566 419.7739928 959
632.542903 418.8985517 957
634.3539564 418.4608312 956
636.8259742 418.4608312 956
637.9605485 417.5853901 954
639.7560872 417.1476696 953
642.2203476 417.1476696 953
643.3316498 416.2722285 951
645.7907386 416.2722285 951
647.5681767 415.834508 950
648.6562068 414.9590669 948
651.1075382 414.9590669 948
653.5588697 414.9590669 948
655.3182072 414.5213464 947
657.7669529 414.5213464 947
660.2156986 414.5213464 947
662.6644442 414.5213464 947
665.1131899 414.5213464 947
667.5619356 414.5213464 947
670.0106812 414.5213464 947
672.4594269 414.5213464 947
674.9081726 414.5213464 947
677.3569182 414.5213464 947
679.8056639 414.5213464 947
682.9748472 414.9590669 948
685.4261786 414.9590669 948
687.8775101 414.9590669 948
690.3288415 414.9590669 948
692.780173 414.9590669 948
696.6982376 415.834508 950
699.1547406 415.834508 950
701.6112437 415.834508 950
704.0677467 415.834508 950
706.5242497 415.834508 950
708.9807528 415.834508 950
712.1861371 416.2722285 951
714.645226 416.2722285 951
717.1043148 416.2722285 951
-67.26358411 561.8308738 1276
-63.86385543 560.9502611 1274
-60.28429862 558.3084232 1268
-57.00551351 558.3084232 1268
-53.43012974 555.2262789 1261
-50.16944518 555.2262789 1261
-46.72276235 553.0247472 1256
-43.19809588 549.5022966 1248
-39.97102662 549.5022966 1248
-36.53786145 546.4201523 1241
-33.32889274 546.4201523 1241
-29.99857059 544.2186207 1236
-26.69410636 542.0170891 1231
-23.51099558 542.0170891 1231
-20.24531824 539.8155574 1226
-17.00549883 537.6140258 1221
-13.84824598 537.6140258 1221
-10.67348126 536.7334131 1219
-7.521399983 536.7334131 1219
-4.351396977 534.5318815 1214
-1.207251898 532.3303498 1209
1.918971447 532.3303498 1209
5.024329636 530.1288182 1204
8.137624017 530.1288182 1204
11.21353993 528.3675929 1200
14.28069992 527.0466739 1197
17.37589375 527.0466739 1197
20.43688359 526.1660613 1195
23.44815469 524.404836 1191
26.52783377 524.404836 1191
29.53293473 523.083917 1188
32.60485643 523.083917 1188
35.61671621 522.2033043 1186
38.52038257 520.0017727 1181
41.57420372 520.0017727 1181
44.5524482 519.12116 1179
47.5203495 518.2405474 1177
50.56382748 518.2405474 1177
53.51621404 517.3599347 1175
56.55452043 517.3599347 1175
59.59282682 517.3599347 1175
62.52452703 516.4793221 1173
65.55766184 516.4793221 1173
68.41537262 515.1584031 1170
71.44075005 515.1584031 1170
74.46612748 515.1584031 1170
77.49150491 515.1584031 1170
80.51688234 515.1584031 1170
83.54225977 515.1584031 1170
86.5676372 515.1584031 1170
89.59301464 515.1584031 1170
92.46007003 514.2777904 1168
95.48027587 514.2777904 1168
98.50048172 514.2777904 1168
101.3468508 513.3971778 1166
104.361885 513.3971778 1166
107.1927393 512.5165651 1164
109.7292231 510.3150335 1159
112.7261568 510.3150335 1159
115.5233958 509.4344208 1157
118.3102916 508.5538082 1155
121.2968822 508.5538082 1155
124.0682633 507.6731955 1153
127.0496822 507.6731955 1153
129.5799959 505.9119702 1149
132.3203474 505.0313575 1147
135.2862516 505.0313575 1147
137.6494873 502.8298259 1142
140.1099846 501.0686006 1138
143.0526166 501.0686006 1138
145.7386665 500.1879879 1136
148.676127 500.1879879 1136
151.3466622 499.3073753 1134
154.0068541 498.4267626 1132
156.9339715 498.4267626 1132
159.2962086 496.6655373 1128
161.9253711 495.7849247 1126
164.8369736 495.7849247 1126
167.4506213 494.904312 1124
170.3570523 494.904312 1124
172.6468872 493.1430867 1120
175.2295054 492.2624741 1118
178.1204216 492.2624741 1118
180.6875251 491.3818614 1116
183.2442854 490.5012487 1114
186.1248584 490.5012487 1114
188.6661039 489.6206361 1112
191.5415054 489.6206361 1112
194.0672361 488.7400234 1110
196.5826237 487.8594108 1108
199.447682 487.8594108 1108
201.9475548 486.9787981 1106
204.8074415 486.9787981 1106
207.2917996 486.0981855 1104
209.7658145 485.2175728 1102
212.6153581 485.2175728 1102
215.0738582 484.3369602 1100
217.5220152 483.4563475 1098
220.3612155 483.4563475 1098
222.7938578 482.5757349 1096
225.6278865 482.5757349 1096
228.045014 481.6951222 1094
230.4517983 480.8145095 1092
233.2754839 480.8145095 1092
235.2343374 479.0532842 1088
237.6100922 478.1726716 1086
240.418263 478.1726716 1086
242.3305722 476.4114463 1082
245.1283999 476.4114463 1082
247.6970906 475.9711399 1081
249.5654413 474.2099146 1077
252.35034 474.2099146 1077
254.66145 473.329302 1075
256.9622168 472.4486893 1073
259.7367723 472.4486893 1073
262.0220244 471.5680767 1071
264.7914083 471.5680767 1071
267.5607923 471.5680767 1071
270.3301762 471.5680767 1071
273.60955 472.4486893 1073
276.3841056 472.4486893 1073
279.1586611 472.4486893 1073
281.9332167 472.4486893 1073
284.7077722 472.4486893 1073
288.0181755 473.329302 1075
290.7979026 473.329302 1075
293.5776298 473.329302 1075
296.9087194 474.2099146 1077
299.6936181 474.2099146 1077
302.4785168 474.2099146 1077
305.8302928 475.0905273 1079
308.6203631 475.0905273 1079
311.4104334 475.0905273 1079
314.2005037 475.0905273 1079
316.990574 475.0905273 1079
319.7806443 475.0905273 1079
322.5707146 475.0905273 1079
325.3607849 475.0905273 1079
328.7591052 475.9711399 1081
331.5543471 475.9711399 1081
334.3495889 475.9711399 1081
337.1448308 475.9711399 1081
339.3111364 475.0905273 1079
342.1012067 475.0905273 1079
344.2519975 474.2099146 1077
347.0368962 474.2099146 1077
349.8217949 474.2099146 1077
351.9518994 473.329302 1075
354.7316266 473.329302 1075
357.5113537 473.329302 1075
359.6207718 472.4486893 1073
362.3953274 472.4486893 1073
364.4892307 471.5680767 1071
366.572791 470.687464 1069
369.3370033 470.687464 1069
371.7531322 470.2471577 1068
374.5147588 470.2471577 1068
376.5698753 469.366545 1066
378.6146486 468.4859324 1064
381.365932 468.4859324 1064
383.3951906 467.6053197 1062
385.414106 466.7247071 1060
388.1550462 466.7247071 1060
390.1584469 465.8440944 1058
392.8942155 465.8440944 1058
395.2560428 465.4037881 1057
397.2361713 464.5231754 1055
399.9641826 464.5231754 1055
401.9287963 463.6425628 1053
403.8830669 462.7619501 1051
406.600735 462.7619501 1051
408.928947 462.3216438 1050
411.6440293 462.3216438 1050
413.5698561 461.4410311 1048
415.4853398 460.5604185 1046
418.190079 460.5604185 1046
420.0900479 459.6798058 1044
421.9796737 458.7991932 1042
424.6740696 458.7991932 1042
426.1380381 457.4782742 1039
428.8246767 457.4782742 1039
430.6806872 456.5976615 1037
432.9442543 456.1573552 1036
435.6231356 456.1573552 1036
436.609731 454.3961299 1032
438.4269546 453.5155172 1030
440.662078 453.0752109 1029
441.5995434 451.3139856 1025
444.2499808 451.3139856 1025
445.5924171 449.9930666 1022
447.3579248 449.112454 1020
449.9954334 449.112454 1020
451.3016685 447.791535 1017
453.9314197 447.791535 1017
455.6633121 446.9109223 1015
457.8363765 446.470616 1014
460.4583703 446.470616 1014
462.1669905 445.5900033 1012
463.4059951 444.2690844 1009
466.0150599 444.2690844 1009
468.6241247 444.2690844 1009
471.2331895 444.2690844 1009
472.9030229 443.3884717 1007
475.5069161 443.3884717 1007
478.1108094 443.3884717 1007
479.7599564 442.5078591 1005
482.358678 442.5078591 1005
484.9573997 442.5078591 1005
487.5561213 442.5078591 1005
490.154843 442.5078591 1005
492.7535646 442.5078591 1005
494.8593984 442.0675527 1004
497.4555342 442.0675527 1004
500.0516701 442.0675527 1004
501.6465155 441.1869401 1002
504.2374797 441.1869401 1002
506.828444 441.1869401 1002
509.4194083 441.1869401 1002
510.9883957 440.3063274 1000
513.0606142 439.8660211 999
515.6438211 439.8660211 999
517.1895364 438.9854084 997
519.7675717 438.9854084 997
522.345607 438.9854084 997
524.3971392 438.5451021 996
526.9725887 438.5451021 996
528.4846887 437.6644895 994
529.9864456 436.7838768 992
532.5515519 436.7838768 992
534.5772261 436.3435705 991
537.1397467 436.3435705 991
538.6130598 435.4629578 989
540.6232193 435.0226515 988
543.1779824 435.0226515 988
544.6280234 434.1420388 986
545.5127744 432.8211199 983
548.0546086 432.8211199 983
549.4762059 431.9405072 981
552.0128685 431.9405072 981
554.5495311 431.9405072 981
556.5183179 431.5002009 980
559.0523947 431.5002009 980
560.4403767 430.6195882 978
562.969282 430.6195882 978
565.4981872 430.6195882 978
567.4462876 430.1792819 977
569.9726071 430.1792819 977
571.3269738 429.2986692 975
573.2595594 428.8583629 974
575.7781215 428.8583629 974
577.109216 427.9777503 972
579.026287 427.5374439 971
581.5370917 427.5374439 971
584.0478963 427.5374439 971
586.558701 427.5374439 971
587.8561803 426.6568313 969
590.3618134 426.6568313 969
592.8674465 426.6568313 969
595.3730796 426.6568313 969
597.2617068 426.2165249 968
599.7647541 426.2165249 968
602.2678014 426.2165249 968
604.7708487 426.2165249 968
606.0191979 425.3359123 966
607.8871388 424.895606 965
610.3824287 424.895606 965
611.6075057 424.0149933 963
614.0976241 424.0149933 963
615.9474644 423.574687 962
617.1492693 422.6940743 960
619.6316303 422.6940743 960
621.4659558 422.253768 959
623.945731 422.253768 959
626.4255062 422.253768 959
626.937903 420.932849 956
629.4099208 420.932849 956
630.5600099 420.0522364 954
633.0268561 420.0522364 954
635.4937023 420.0522364 954
637.2918268 419.61193 953
638.4134721 418.7313174 951
640.8725609 418.7313174 951
642.6551706 418.291011 950
645.1116737 418.291011 950
647.5681767 418.291011 950
648.6562068 417.4103984 948
651.1075382 417.4103984 948
653.5588697 417.4103984 948
655.3182072 416.9700921 947
657.7669529 416.9700921 947
660.2156986 416.9700921 947
662.6644442 416.9700921 947
665.1131899 416.9700921 947
667.5619356 416.9700921 947
670.0106812 416.9700921 947
672.4594269 416.9700921 947
674.9081726 416.9700921 947
677.3569182 416.9700921 947
679.8056639 416.9700921 947
682.9748472 417.4103984 948
685.4261786 417.4103984 948
687.8775101 417.4103984 948
690.3288415 417.4103984 948
692.780173 417.4103984 948
695.2315044 417.4103984 948
699.1547406 418.291011 950
701.6112437 418.291011 950
704.0677467 418.291011 950
706.5242497 418.291011 950
708.9807528 418.291011 950
712.1861371 418.7313174 951
714.645226 418.7313174 951
717.1043148 418.7313174 951
-67.26358411 565.1303452 1276
-63.86385543 564.244561 1274
-60.28429862 561.5872083 1268
-57.00551351 561.5872083 1268
-53.43012974 558.4869634 1261
-50.16944518 558.4869634 1261
-46.72276235 556.2725028 1256
-43.19809588 552.7293659 1248
-39.97102662 552.7293659 1248
-36.53786145 549.629121 1241
-33.32889274 549.629121 1241
-29.99857059 547.4146604 1236
-26.69410636 545.2001998 1231
-23.51099558 545.2001998 1231
-20.24531824 542.9857392 1226
-17.00549883 540.7712786 1221
-13.84824598 540.7712786 1221
-10.67348126 539.8854944 1219
-7.521399983 539.8854944 1219
-4.351396977 537.6710338 1214
-1.207251898 535.4565732 1209
1.918971447 535.4565732 1209
5.024329636 533.2421126 1204
8.137624017 533.2421126 1204
11.21353993 531.4705441 1200
14.28069992 530.1418678 1197
17.37589375 530.1418678 1197
20.43688359 529.2560835 1195
23.44815469 527.484515 1191
26.52783377 527.484515 1191
29.53293473 526.1558387 1188
32.60485643 526.1558387 1188
35.61671621 525.2700544 1186
38.52038257 523.0555938 1181
41.57420372 523.0555938 1181
44.5524482 522.1698096 1179
47.5203495 521.2840254 1177
50.56382748 521.2840254 1177
53.51621404 520.3982411 1175
56.55452043 520.3982411 1175
59.59282682 520.3982411 1175
62.52452703 519.5124569 1173
65.55766184 519.5124569 1173
68.41537262 518.1837805 1170
71.44075005 518.1837805 1170
74.46612748 518.1837805 1170
77.49150491 518.1837805 1170
80.51688234 518.1837805 1170
83.54225977 518.1837805 1170
86.5676372 518.1837805 1170
89.59301464 518.1837805 1170
92.46007003 517.2979963 1168
95.48027587 517.2979963 1168
98.50048172 517.2979963 1168
101.3468508 516.412212 1166
104.361885 516.412212 1166
107.0085594 514.6406436 1162
109.7292231 513.3119672 1159
112.7261568 513.3119672 1159
115.3237011 511.5403987 1155
118.1054253 510.6546145 1153
121.0868443 510.6546145 1153
123.8530538 509.7688302 1151
126.8293011 509.7688302 1151
129.5799959 508.883046 1149
131.9742611 506.6685854 1144
134.9324079 506.6685854 1144
137.4084199 504.8970169 1140
140.1099846 504.0112327 1138
143.0526166 504.0112327 1138
145.4820844 502.2396642 1134
148.4143733 502.2396642 1134
151.0797368 501.3538799 1132
153.7347572 500.4680957 1130
156.656703 500.4680957 1130
159.0137685 498.6965272 1126
161.6377594 497.810743 1124
164.5441904 497.810743 1124
167.1526665 496.9249587 1122
170.0539259 496.9249587 1122
172.3385892 495.1533903 1118
174.9160358 494.267606 1116
177.8017805 494.267606 1116
180.6875251 494.267606 1116
183.2442854 493.3818218 1114
186.1248584 493.3818218 1114
188.6661039 492.4960375 1112
191.5415054 492.4960375 1112
194.0672361 491.6102533 1110
196.5826237 490.7244691 1108
199.447682 490.7244691 1108
202.3127403 490.7244691 1108
205.1777986 490.7244691 1108
207.6673282 489.8386848 1106
210.1465147 488.9529006 1104
213.0012298 488.9529006 1104
215.4649016 488.0671163 1102
217.9182301 487.1813321 1100
220.7626021 487.1813321 1100
223.2004159 486.2955479 1098
226.0396163 486.2955479 1098
228.4619153 485.4097636 1096
230.8738712 484.5239794 1094
233.7027284 484.5239794 1094
235.6667534 482.7524109 1090
238.0476798 481.8666267 1088
240.8610222 481.8666267 1088
243.2264339 480.9808424 1086
246.0346047 480.9808424 1086
247.9262276 479.2092739 1082
250.0288869 477.8805976 1079
252.8189572 477.8805976 1079
255.1352387 476.9948133 1077
257.4411771 476.1090291 1075
260.2209042 476.1090291 1075
262.5113279 475.2232449 1073
265.2858834 475.2232449 1073
268.060439 475.2232449 1073
270.8349945 475.2232449 1073
273.60955 475.2232449 1073
276.3841056 475.2232449 1073
279.1586611 475.2232449 1073
281.9332167 475.2232449 1073
284.7077722 475.2232449 1073
288.0181755 476.1090291 1075
290.7979026 476.1090291 1075
293.5776298 476.1090291 1075
296.9087194 476.9948133 1077
299.6936181 476.9948133 1077
302.4785168 476.9948133 1077
305.8302928 477.8805976 1079
308.6203631 477.8805976 1079
311.4104334 477.8805976 1079
314.2005037 477.8805976 1079
316.990574 477.8805976 1079
319.7806443 477.8805976 1079
322.5707146 477.8805976 1079
325.3607849 477.8805976 1079
328.7591052 478.7663818 1081
331.5543471 478.7663818 1081
334.3495889 478.7663818 1081
337.1448308 478.7663818 1081
339.3111364 477.8805976 1079
342.1012067 477.8805976 1079
344.2519975 476.9948133 1077
347.0368962 476.9948133 1077
349.8217949 476.9948133 1077
351.9518994 476.1090291 1075
354.7316266 476.1090291 1075
357.5113537 476.1090291 1075
359.6207718 475.2232449 1073
362.3953274 475.2232449 1073
364.4892307 474.3374606 1071
366.572791 473.4516764 1069
369.3370033 473.4516764 1069
371.7531322 473.0087843 1068
374.5147588 473.0087843 1068
376.5698753 472.123 1066
378.6146486 471.2372158 1064
381.365932 471.2372158 1064
383.3951906 470.3514315 1062
385.414106 469.4656473 1060
388.1550462 469.4656473 1060
390.1584469 468.5798631 1058
392.8942155 468.5798631 1058
395.2560428 468.1369709 1057
397.2361713 467.2511867 1055
399.9641826 467.2511867 1055
401.9287963 466.3654025 1053
403.8830669 465.4796182 1051
406.600735 465.4796182 1051
408.928947 465.0367261 1050
411.6440293 465.0367261 1050
413.5698561 464.1509419 1048
415.4853398 463.2651576 1046
418.190079 463.2651576 1046
420.0900479 462.3793734 1044
421.9796737 461.4935891 1042
424.6740696 461.4935891 1042
426.1380381 460.1649128 1039
428.8246767 460.1649128 1039
430.6806872 459.2791285 1037
432.9442543 458.8362364 1036
435.6231356 458.8362364 1036
436.609731 457.0646679 1032
439.278269 457.0646679 1032
440.662078 455.7359916 1029
441.5995434 453.9644231 1025
444.2499808 453.9644231 1025
445.5924171 452.6357467 1022
447.3579248 451.7499625 1020
449.9954334 451.7499625 1020
451.3016685 450.4212861 1017
453.9314197 450.4212861 1017
455.6633121 449.5355019 1015
457.8363765 449.0926098 1014
460.4583703 449.0926098 1014
462.1669905 448.2068255 1012
463.4059951 446.8781492 1009
466.0150599 446.8781492 1009
468.6241247 446.8781492 1009
471.2331895 446.8781492 1009
472.9030229 445.9923649 1007
475.5069161 445.9923649 1007
478.1108094 445.9923649 1007
479.7599564 445.1065807 1005
482.358678 445.1065807 1005
484.9573997 445.1065807 1005
487.5561213 445.1065807 1005
490.154843 445.1065807 1005
492.7535646 445.1065807 1005
494.8593984 444.6636886 1004
497.4555342 444.6636886 1004
500.0516701 444.6636886 1004
501.6465155 443.7779043 1002
504.2374797 443.7779043 1002
506.828444 443.7779043 1002
509.4194083 443.7779043 1002
510.9883957 442.8921201 1000
513.0606142 442.449228 999
515.6438211 442.449228 999
517.1895364 441.5634437 997
519.7675717 441.5634437 997
522.345607 441.5634437 997
524.3971392 441.1205516 996
526.9725887 441.1205516 996
528.4846887 440.2347674 994
529.9864456 439.3489831 992
532.5515519 439.3489831 992
534.5772261 438.906091 991
537.1397467 438.906091 991
538.6130598 438.0203068 989
540.6232193 437.5774147 988
543.1779824 437.5774147 988
544.6280234 436.6916304 986
545.5127744 435.3629541 983
548.0546086 435.3629541 983
549.4762059 434.4771698 981
552.0128685 434.4771698 981
554.5495311 434.4771698 981
556.5183179 434.0342777 980
559.0523947 434.0342777 980
560.4403767 433.1484935 978
562.969282 433.1484935 978
565.4981872 433.1484935 978
567.4462876 432.7056013 977
569.9726071 432.7056013 977
571.3269738 431.8198171 975
573.2595594 431.376925 974
575.7781215 431.376925 974
578.2966836 431.376925 974
579.6226065 430.4911407 972
582.135997 430.4911407 972
584.0478963 430.0482486 971
586.558701 430.0482486 971
589.0695057 430.0482486 971
590.3618134 429.1624644 969
592.8674465 429.1624644 969
595.3730796 429.1624644 969
597.2617068 428.7195723 968
599.7647541 428.7195723 968
602.2678014 428.7195723 968
604.7708487 428.7195723 968
606.0191979 427.833788 966
607.8871388 427.3908959 965
610.3824287 427.3908959 965
611.6075057 426.5051117 963
614.0976241 426.5051117 963
615.9474644 426.0622195 962
617.1492693 425.1764353 960
619.6316303 425.1764353 960
621.4659558 424.7335432 959
623.945731 424.7335432 959
626.4255062 424.7335432 959
626.937903 423.4048668 956
629.4099208 423.4048668 956
630.5600099 422.5190826 954
633.0268561 422.5190826 954
635.4937023 422.5190826 954
637.2918268 422.0761905 953
638.4134721 421.1904062 951
640.8725609 421.1904062 951
642.6551706 420.7475141 950
645.1116737 420.7475141 950
647.5681767 420.7475141 950
648.6562068 419.8617299 948
651.1075382 419.8617299 948
653.5588697 419.8617299 948
655.3182072 419.4188377 947
657.7669529 419.4188377 947
660.2156986 419.4188377 947
662.6644442 419.4188377 947
665.1131899 419.4188377 947
667.5619356 419.4188377 947
670.0106812 419.4188377 947
672.4594269 419.4188377 947
674.9081726 419.4188377 947
678.0721842 419.8617299 948
680.5235157 419.8617299 948
682.9748472 419.8617299 948
685.4261786 419.8617299 948
687.8775101 419.8617299 948
690.3288415 419.8617299 948
692.780173 419.8617299 948
695.2315044 419.8617299 948
699.1547406 420.7475141 950
701.6112437 420.7475141 950
704.0677467 420.7475141 950
706.5242497 420.7475141 950
709.7270483 421.1904062 951
712.1861371 421.1904062 951
714.645226 421.1904062 951
718.6124206 422.0761905 953
-67.57987056 571.1026842 1282
-63.96411266 568.4298167 1276
-60.42692709 566.2024271 1271
-57.1403846 566.2024271 1271
-53.51487221 562.6386038 1263
-50.24901606 562.6386038 1263
-46.72276235 559.5202584 1256
-43.19809588 555.9564351 1248
-39.97102662 555.9564351 1248
-36.53786145 552.8380897 1241
-33.32889274 552.8380897 1241
-30.04711196 551.501656 1238
-26.73747615 549.2742664 1233
-23.54919378 549.2742664 1233
-20.27834486 547.0468769 1228
-17.03335387 544.8194873 1223
-13.87092943 544.8194873 1223
-10.69099312 543.9285315 1221
-7.533740262 543.9285315 1221
-4.358565671 541.7011419 1216
-1.209249007 539.4737524 1211
1.922145924 539.4737524 1211
5.036848729 537.6918407 1207
8.157900489 537.6918407 1207
11.2509184 536.355407 1204
14.31649114 534.5734953 1200
17.41944235 534.5734953 1200
20.47108758 533.2370616 1197
23.48753027 531.4551499 1193
26.57238093 531.4551499 1193
29.53293473 529.2277604 1188
32.60485643 529.2277604 1188
35.61671621 528.3368045 1186
38.61823282 527.4458487 1184
41.67981135 527.4458487 1184
44.62802487 526.109415 1181
47.5203495 524.3275033 1177
50.56382748 524.3275033 1177
53.51621404 523.4365475 1175
56.55452043 523.4365475 1175
59.59282682 523.4365475 1175
62.63113322 523.4365475 1175
65.66943961 523.4365475 1175
68.59079665 522.5455917 1173
71.44075005 521.2091579 1170
74.46612748 521.2091579 1170
77.49150491 521.2091579 1170
80.51688234 521.2091579 1170
83.54225977 521.2091579 1170
86.5676372 521.2091579 1170
89.59301464 521.2091579 1170
92.46007003 520.3182021 1168
95.48027587 520.3182021 1168
98.50048172 520.3182021 1168
101.3468508 519.4272463 1166
104.361885 519.4272463 1166
107.0085594 517.6453346 1162
109.7292231 516.3089009 1159
112.7261568 516.3089009 1159
115.3237011 514.5269893 1155
118.1054253 513.6360334 1153
121.0868443 513.6360334 1153
123.8530538 512.7450776 1151
126.8293011 512.7450776 1151
129.3544432 510.9631659 1147
131.9742611 509.6267322 1144
134.9324079 509.6267322 1144
137.1673525 506.9538647 1138
139.8637456 506.0629089 1136
142.8012061 506.0629089 1136
145.2255022 504.2809973 1132
148.1526195 504.2809973 1132
150.8128115 503.3900414 1130
153.1905634 501.6081298 1126
156.102166 501.6081298 1126
158.7313284 500.717174 1124
161.3501477 499.8262181 1122
164.2514071 499.8262181 1122
166.8547116 498.9352623 1120
169.7507994 498.9352623 1120
172.3385892 498.0443065 1118
174.9160358 497.1533507 1116
177.8017805 497.1533507 1116
180.3637123 496.2623948 1114
183.2442854 496.2623948 1114
186.1248584 496.2623948 1114
188.6661039 495.371439 1112
191.5415054 495.371439 1112
194.0672361 494.4804832 1110
196.937466 494.4804832 1110
199.8076959 494.4804832 1110
202.3127403 493.5895274 1108
205.1777986 493.5895274 1108
207.6673282 492.6985715 1106
210.1465147 491.8076157 1104
213.0012298 491.8076157 1104
215.4649016 490.9166599 1102
217.9182301 490.025704 1100
220.7626021 490.025704 1100
223.2004159 489.1347482 1098
226.0396163 489.1347482 1098
228.4619153 488.2437924 1096
230.8738712 487.3528366 1094
233.7027284 487.3528366 1094
235.6667534 485.5709249 1090
238.0476798 484.6799691 1088
240.8610222 484.6799691 1088
243.2264339 483.7890133 1086
246.0346047 483.7890133 1086
247.9262276 482.0071016 1082
250.0288869 480.6706679 1079
252.8189572 480.6706679 1079
255.1352387 479.7797121 1077
257.4411771 478.8887562 1075
260.2209042 478.8887562 1075
262.5113279 477.9978004 1073
265.2858834 477.9978004 1073
268.060439 477.9978004 1073
270.8349945 477.9978004 1073
273.60955 477.9978004 1073
276.3841056 477.9978004 1073
279.1586611 477.9978004 1073
281.9332167 477.9978004 1073
284.7077722 477.9978004 1073
287.4823277 477.9978004 1073
290.2568833 477.9978004 1073
293.5776298 478.8887562 1075
296.3573569 478.8887562 1075
299.137084 478.8887562 1075
302.4785168 479.7797121 1077
305.2634156 479.7797121 1077
308.0483143 479.7797121 1077
310.833213 479.7797121 1077
313.6181117 479.7797121 1077
316.4030104 479.7797121 1077
319.1879091 479.7797121 1077
321.9728078 479.7797121 1077
324.7577065 479.7797121 1077
327.5426053 479.7797121 1077
330.327504 479.7797121 1077
333.1124027 479.7797121 1077
335.8973014 479.7797121 1077
338.6822001 479.7797121 1077
341.4670988 479.7797121 1077
343.612718 478.8887562 1075
345.7479941 477.9978004 1073
348.5225497 477.9978004 1073
351.2971052 477.9978004 1073
354.0716607 477.9978004 1073
356.1810789 477.1068446 1071
358.2801538 476.2158888 1069
361.0443662 476.2158888 1069
363.4682525 475.7704108 1068
365.5440553 474.879455 1066
368.3005103 474.879455 1066
370.3607984 473.9884992 1064
373.1120818 473.9884992 1064
375.1568551 473.0975434 1062
377.902967 473.0975434 1062
380.6490788 473.0975434 1062
382.6731658 472.2065875 1060
384.6869096 471.3156317 1058
387.4226782 471.3156317 1058
389.7896771 470.8701538 1057
392.5228599 470.8701538 1057
394.50816 469.979198 1055
396.4831169 469.0882421 1053
399.2059566 469.0882421 1053
401.1653988 468.1972863 1051
403.4987823 467.7518084 1050
406.2138647 467.7518084 1050
408.1500347 466.8608526 1048
410.8599454 466.8608526 1048
413.5698561 466.8608526 1048
415.4853398 465.9698968 1046
418.190079 465.9698968 1046
419.2852777 464.1879851 1042
421.5747028 463.7425072 1041
424.2665129 463.7425072 1041
426.1380381 462.8515514 1039
428.8246767 462.8515514 1039
430.6806872 461.9605955 1037
432.1084546 460.6241618 1034
434.7821642 460.6241618 1034
436.609731 459.733206 1032
439.278269 459.733206 1032
440.662078 458.3967722 1029
441.5995434 456.6148606 1025
444.2499808 456.6148606 1025
445.5924171 455.2784269 1022
447.3579248 454.387471 1020
449.9954334 454.387471 1020
451.3016685 453.0510373 1017
453.9314197 453.0510373 1017
455.2143827 451.7146035 1014
456.9333462 450.8236477 1012
459.5501683 450.8236477 1012
461.253617 449.9326919 1010
463.4059951 449.487214 1009
466.0150599 449.487214 1009
467.6952365 448.5962582 1007
470.2991297 448.5962582 1007
471.9637915 447.7053023 1005
