# .PCD v0.7 - Point Cloud Data file format
VERSION 0.7
FIELDS x y z
SIZE 4 4 4
TYPE F F F
COUNT 1 1 1
WIDTH 1608
HEIGHT 1
VIEWPOINT 0 0 0 1 0 0 0
POINTS 1608
DATA ascii
-2534.308037 410.4697742 3585
-2539.828988 412.8741996 3606
-2530.50462 412.8741996 3606
-2535.862665 415.2786251 3627
-2526.483995 415.2786251 3627
-2517.105325 415.2786251 3627
-2507.726655 415.2786251 3627
-2513.502012 417.797547 3649
-2504.066455 417.797547 3649
-2494.630897 417.797547 3649
-2485.19534 417.797547 3649
-2490.007783 420.2019724 3670
-2480.517924 420.2019724 3670
-2471.028065 420.2019724 3670
-2476.294021 422.7208943 3692
-2466.747274 422.7208943 3692
-2457.200527 422.7208943 3692
-2447.653781 422.7208943 3692
-2438.107034 422.7208943 3692
-2428.560288 422.7208943 3692
-2433.428031 425.2398163 3714
-2423.824397 425.2398163 3714
-2429.171511 427.8732346 3737
-2433.752232 430.3921565 3759
-2424.032237 430.3921565 3759
-2414.312243 430.3921565 3759
-2419.305103 433.0255749 3782
-2409.525635 433.0255749 3782
-2414.340076 435.6589932 3805
-2419.667502 438.406908 3829
-2409.766502 438.406908 3829
-2414.907751 441.1548228 3853
-2404.944691 441.1548228 3853
-2409.899763 443.9027376 3877
-2399.874645 443.9027376 3877
-2389.849527 443.9027376 3877
-2379.824409 443.9027376 3877
-2369.79929 443.9027376 3877
-2359.774172 443.9027376 3877
-2349.749054 443.9027376 3877
-2339.723936 443.9027376 3877
-2329.698818 443.9027376 3877
-2319.673699 443.9027376 3877
-2309.648581 443.9027376 3877
-2285.387981 441.1548228 3853
-2275.424922 441.1548228 3853
-2265.461863 441.1548228 3853
-2255.498804 441.1548228 3853
-2245.535744 441.1548228 3853
-2235.572685 441.1548228 3853
-2225.609626 441.1548228 3853
-2201.845498 438.406908 3829
-2191.944498 438.406908 3829
-2195.720449 441.1548228 3853
-2185.757389 441.1548228 3853
-2175.79433 441.1548228 3853
-2165.831271 441.1548228 3853
-2155.868212 441.1548228 3853
-2145.905153 441.1548228 3853
-2135.942093 441.1548228 3853
-2125.979034 441.1548228 3853
-2116.015975 441.1548228 3853
-2106.052916 441.1548228 3853
-2069.977136 435.6589932 3805
-2060.138195 435.6589932 3805
-1966.239679 417.797547 3649
-1933.745043 412.8741996 3606
-1924.420674 412.8741996 3606
-1882.168971 405.7754197 3544
-1873.004921 405.7754197 3544
-1842.804293 401.1955617 3504
-1823.800431 399.0201291 3485
-1814.788944 399.0201291 3485
-1795.414314 396.7302001 3465
-1776.658688 394.5547676 3446
-1767.748047 394.5547676 3446
-1758.837405 394.5547676 3446
-1749.926763 394.5547676 3446
-1741.016122 394.5547676 3446
-1732.10548 394.5547676 3446
-2579.780005 396.7917213 3389
-2571.016754 396.7917213 3389
-2562.253502 396.7917213 3389
-2553.490251 396.7917213 3389
-2544.727 396.7917213 3389
-2535.963748 396.7917213 3389
-2527.200497 396.7917213 3389
-2532.556545 399.0162839 3408
-2523.744164 399.0162839 3408
-2514.931783 399.0162839 3408
-2492.147491 396.7917213 3389
-2483.38424 396.7917213 3389
-2474.620989 396.7917213 3389
-2507.331296 403.4654091 3446
-2498.420655 403.4654091 3446
-2489.510013 403.4654091 3446
-2508.673479 408.0316166 3485
-2499.661992 408.0316166 3485
-2504.229374 410.2561792 3504
-2495.168756 410.2561792 3504
-2486.108138 410.2561792 3504
-2491.18592 412.5978241 3524
-2496.16027 414.939469 3544
-2486.996221 414.939469 3544
-2492.514586 417.3981961 3565
-2497.22777 419.7398409 3585
-2487.957704 419.7398409 3585
-2493.207146 422.198568 3606
-2483.882778 422.198568 3606
-2474.558409 422.198568 3606
-2479.590645 424.6572951 3627
-2470.211975 424.6572951 3627
-2475.759782 427.2331045 3649
-2466.324225 427.2331045 3649
-2456.888667 427.2331045 3649
-2461.538206 429.6918316 3670
-2466.747274 432.2676409 3692
-2457.200527 432.2676409 3692
-2447.653781 432.2676409 3692
-2438.107034 432.2676409 3692
-2428.560288 432.2676409 3692
-2433.428031 434.8434502 3714
-2423.824397 434.8434502 3714
-2414.220763 434.8434502 3714
-2419.508404 437.5363418 3737
-2409.845297 437.5363418 3737
-2414.312243 440.1121512 3759
-2419.305103 442.8050428 3782
-2409.525635 442.8050428 3782
-2414.340076 445.4979344 3805
-2404.501134 445.4979344 3805
-2394.662193 445.4979344 3805
-2414.907751 451.117882 3853
-2404.944691 451.117882 3853
-2394.981632 451.117882 3853
-2399.874645 453.9278558 3877
-2389.849527 453.9278558 3877
-2379.824409 453.9278558 3877
-2369.79929 453.9278558 3877
-2359.774172 453.9278558 3877
-2349.749054 453.9278558 3877
-2339.723936 453.9278558 3877
-2329.698818 453.9278558 3877
-2319.673699 453.9278558 3877
-2309.648581 453.9278558 3877
-2285.387981 451.117882 3853
-2275.424922 451.117882 3853
-2265.461863 451.117882 3853
-2255.498804 451.117882 3853
-2245.535744 451.117882 3853
-2235.572685 451.117882 3853
-2225.609626 451.117882 3853
-2201.845498 448.3079082 3829
-2191.944498 448.3079082 3829
-2182.043498 448.3079082 3829
-2158.527606 445.4979344 3805
-2148.688665 445.4979344 3805
-2138.849724 445.4979344 3805
-2129.010783 445.4979344 3805
-2119.171842 445.4979344 3805
-2109.332901 445.4979344 3805
-2086.803194 442.8050428 3782
-2077.023726 442.8050428 3782
-2054.67244 440.1121512 3759
-2020.47177 434.8434502 3714
-2010.868136 434.8434502 3714
-1966.239679 427.2331045 3649
-1933.745043 422.198568 3606
-1924.420674 422.198568 3606
-1882.168971 414.939469 3544
-1873.004921 414.939469 3544
-1842.804293 410.2561792 3504
-1823.800431 408.0316166 3485
-1814.788944 408.0316166 3485
-1795.414314 405.6899718 3465
-1776.658688 403.4654091 3446
-1767.748047 403.4654091 3446
-1758.837405 403.4654091 3446
-1749.926763 403.4654091 3446
-1741.016122 403.4654091 3446
-1732.10548 403.4654091 3446
-2608.706426 410.102358 3427
-2599.844914 410.102358 3427
-2576.618453 407.8286654 3408
-2567.806071 407.8286654 3408
-2558.99369 407.8286654 3408
-2550.181308 407.8286654 3408
-2541.368927 407.8286654 3408
-2532.556545 407.8286654 3408
-2523.744164 407.8286654 3408
-2514.931783 407.8286654 3408
-2492.147491 405.5549727 3389
-2483.38424 405.5549727 3389
-2474.620989 405.5549727 3389
-2493.506776 410.102358 3427
-2484.645265 410.102358 3427
-2475.783753 410.102358 3427
-2494.276501 414.6497434 3465
-2485.316729 414.6497434 3465
-2490.650504 417.0431041 3485
-2495.168756 419.3167968 3504
-2486.108138 419.3167968 3504
-2491.18592 421.7101575 3524
-2482.073587 421.7101575 3524
-2472.961253 421.7101575 3524
-2477.832171 424.1035182 3544
-2468.668122 424.1035182 3544
-2459.504073 424.1035182 3544
-2464.859533 426.6165469 3565
-2455.641182 426.6165469 3565
-2460.147503 429.0099077 3585
-2479.590645 434.0359652 3627
-2470.211975 434.0359652 3627
-2475.759782 436.6686619 3649
-2466.324225 436.6686619 3649
-2456.888667 436.6686619 3649
-2461.538206 439.1816907 3670
-2466.747274 441.8143875 3692
-2457.200527 441.8143875 3692
-2447.653781 441.8143875 3692
-2438.107034 441.8143875 3692
-2428.560288 441.8143875 3692
-2433.428031 444.4470842 3714
-2423.824397 444.4470842 3714
-2414.220763 444.4470842 3714
-2419.508404 447.1994491 3737
-2409.845297 447.1994491 3737
-2429.084571 452.5845107 3782
-2419.305103 452.5845107 3782
-2409.525635 452.5845107 3782
-2414.340076 455.3368755 3805
-2404.501134 455.3368755 3805
-2394.662193 455.3368755 3805
-2399.865501 458.2089083 3829
-2389.964501 458.2089083 3829
-2394.981632 461.0809412 3853
-2385.018573 461.0809412 3853
-2375.055514 461.0809412 3853
-2365.092455 461.0809412 3853
-2369.79929 463.9529741 3877
-2359.774172 463.9529741 3877
-2349.749054 463.9529741 3877
-2339.723936 463.9529741 3877
-2329.698818 463.9529741 3877
-2319.673699 463.9529741 3877
-2295.35104 461.0809412 3853
-2271.152499 458.2089083 3829
-2261.251499 458.2089083 3829
-2251.350499 458.2089083 3829
-2241.449499 458.2089083 3829
-2231.548499 458.2089083 3829
-2221.647499 458.2089083 3829
-2211.746498 458.2089083 3829
-2174.818405 452.5845107 3782
-2151.872387 449.8321459 3759
-2142.152392 449.8321459 3759
-2119.95208 447.1994491 3737
-2110.288973 447.1994491 3737
-2100.625866 447.1994491 3737
-2078.093574 444.4470842 3714
-2068.48994 444.4470842 3714
-2034.494545 439.1816907 3670
-2013.417466 436.6686619 3649
-2003.981908 436.6686619 3649
-1982.521133 434.0359652 3627
-1961.718148 431.5229364 3606
-1952.393779 431.5229364 3606
-1931.753699 429.0099077 3585
-1922.483632 429.0099077 3585
-1880.659583 421.7101575 3524
-1850.834893 417.0431041 3485
-1841.823406 417.0431041 3485
-1812.301254 412.3760507 3446
-1803.390613 412.3760507 3446
-1794.479971 412.3760507 3446
-1765.87936 407.8286654 3408
-1757.066979 407.8286654 3408
-1748.254597 407.8286654 3408
-1739.442216 407.8286654 3408
-1730.629834 407.8286654 3408
-1721.817453 407.8286654 3408
-1713.005072 407.8286654 3408
-2637.632847 423.609515 3465
-2614.258995 421.2866923 3446
-2590.983403 418.9638695 3427
-2582.121891 418.9638695 3427
-2573.26038 418.9638695 3427
-2564.398868 418.9638695 3427
-2555.537357 418.9638695 3427
-2532.556545 416.6410468 3408
-2523.744164 416.6410468 3408
-2514.931783 416.6410468 3408
-2492.147491 414.3182241 3389
-2483.38424 414.3182241 3389
-2474.620989 414.3182241 3389
-2493.506776 418.9638695 3427
-2484.645265 418.9638695 3427
-2475.783753 418.9638695 3427
-2494.276501 423.609515 3465
-2485.316729 423.609515 3465
-2490.650504 426.0545916 3485
-2495.168756 428.3774143 3504
-2486.108138 428.3774143 3504
-2491.18592 430.8224909 3524
-2482.073587 430.8224909 3524
-2472.961253 430.8224909 3524
-2477.832171 433.2675674 3544
-2468.668122 433.2675674 3544
-2459.504073 433.2675674 3544
-2464.859533 435.8348978 3565
-2455.641182 435.8348978 3565
-2460.147503 438.2799744 3585
-2479.590645 443.4146352 3627
-2470.211975 443.4146352 3627
-2475.759782 446.1042194 3649
-2480.517924 448.6715498 3670
-2471.028065 448.6715498 3670
-2461.538206 448.6715498 3670
-2466.747274 451.361134 3692
-2457.200527 451.361134 3692
-2462.238933 454.0507182 3714
-2452.635299 454.0507182 3714
-2443.031665 454.0507182 3714
-2448.497726 456.8625563 3737
-2438.834619 456.8625563 3737
-2443.472227 459.5521405 3759
-2433.752232 459.5521405 3759
-2424.032237 459.5521405 3759
-2429.084571 462.3639786 3782
-2419.305103 462.3639786 3782
-2409.525635 462.3639786 3782
-2414.340076 465.1758166 3805
-2404.501134 465.1758166 3805
-2394.662193 465.1758166 3805
-2399.865501 468.1099085 3829
-2389.964501 468.1099085 3829
-2394.981632 471.0440004 3853
-2385.018573 471.0440004 3853
-2375.055514 471.0440004 3853
-2365.092455 471.0440004 3853
-2369.79929 473.9780923 3877
-2359.774172 473.9780923 3877
-2349.749054 473.9780923 3877
-2339.723936 473.9780923 3877
-2329.698818 473.9780923 3877
-2319.673699 473.9780923 3877
-2295.35104 471.0440004 3853
-2271.152499 468.1099085 3829
-2261.251499 468.1099085 3829
-2251.350499 468.1099085 3829
-2241.449499 468.1099085 3829
-2231.548499 468.1099085 3829
-2221.647499 468.1099085 3829
-2211.746498 468.1099085 3829
-2174.818405 462.3639786 3782
-2151.872387 459.5521405 3759
-2142.152392 459.5521405 3759
-2119.95208 456.8625563 3737
-2110.288973 456.8625563 3737
-2100.625866 456.8625563 3737
-2078.093574 454.0507182 3714
-2068.48994 454.0507182 3714
-2034.494545 448.6715498 3670
-2013.417466 446.1042194 3649
-2003.981908 446.1042194 3649
-1982.521133 443.4146352 3627
-1961.718148 440.8473048 3606
-1952.393779 440.8473048 3606
-1931.753699 438.2799744 3585
-1922.483632 438.2799744 3585
-1880.659583 430.8224909 3524
-1850.834893 426.0545916 3485
-1841.823406 426.0545916 3485
-1812.301254 421.2866923 3446
-1803.390613 421.2866923 3446
-1794.479971 421.2866923 3446
-1765.87936 416.6410468 3408
-1757.066979 416.6410468 3408
-1748.254597 416.6410468 3408
-1739.442216 416.6410468 3408
-1730.629834 416.6410468 3408
-1721.817453 416.6410468 3408
-1713.005072 416.6410468 3408
-2637.632847 432.5692866 3465
-2614.258995 430.1973338 3446
-2590.983403 427.825381 3427
-2582.121891 427.825381 3427
-2573.26038 427.825381 3427
-2564.398868 427.825381 3427
-2555.537357 427.825381 3427
-2532.556545 425.4534282 3408
-2523.744164 425.4534282 3408
-2500.910743 423.0814754 3389
-2478.910945 420.8343623 3371
-2470.194238 420.8343623 3371
-2461.477531 420.8343623 3371
-2465.857737 423.0814754 3389
-2470.869875 425.4534282 3408
-2462.057494 425.4534282 3408
-2466.922242 427.825381 3427
-2458.06073 427.825381 3427
-2476.356958 432.5692866 3465
-2481.639017 435.066079 3485
-2472.627529 435.066079 3485
-2477.047521 437.4380318 3504
-2467.986903 437.4380318 3504
-2458.926286 437.4380318 3504
-2463.84892 439.9348243 3524
-2468.668122 442.4316167 3544
-2459.504073 442.4316167 3544
-2464.859533 445.0532487 3565
-2455.641182 445.0532487 3565
-2460.147503 447.5500411 3585
-2479.590645 452.7933052 3627
-2470.211975 452.7933052 3627
-2475.759782 455.5397769 3649
-2480.517924 458.1614089 3670
-2471.028065 458.1614089 3670
-2461.538206 458.1614089 3670
-2466.747274 460.9078806 3692
-2457.200527 460.9078806 3692
-2462.238933 463.6543522 3714
-2452.635299 463.6543522 3714
-2443.031665 463.6543522 3714
-2448.497726 466.5256635 3737
-2438.834619 466.5256635 3737
-2443.472227 469.2721352 3759
-2433.752232 469.2721352 3759
-2424.032237 469.2721352 3759
-2429.084571 472.1434465 3782
-2419.305103 472.1434465 3782
-2409.525635 472.1434465 3782
-2414.340076 475.0147578 3805
-2404.501134 475.0147578 3805
-2394.662193 475.0147578 3805
-2399.865501 478.0109087 3829
-2389.964501 478.0109087 3829
-2380.063501 478.0109087 3829
-2385.018573 481.0070596 3853
-2375.055514 481.0070596 3853
-2365.092455 481.0070596 3853
-2369.79929 484.0032105 3877
-2359.774172 484.0032105 3877
-2349.749054 484.0032105 3877
-2339.723936 484.0032105 3877
-2315.277159 481.0070596 3853
-2305.3141 481.0070596 3853
-2295.35104 481.0070596 3853
-2271.152499 478.0109087 3829
-2261.251499 478.0109087 3829
-2251.350499 478.0109087 3829
-2213.936277 472.1434465 3782
-2204.156809 472.1434465 3782
-2181.032371 469.2721352 3759
-2171.312376 469.2721352 3759
-2148.941402 466.5256635 3737
-2113.517651 460.9078806 3692
-2103.970905 460.9078806 3692
-2081.943841 458.1614089 3670
-2060.595253 455.5397769 3649
-2051.159696 455.5397769 3649
-2017.664358 450.1716732 3606
-2008.33999 450.1716732 3606
-1987.374099 447.5500411 3585
-1955.481365 442.4316167 3544
-1946.317315 442.4316167 3544
-1937.153266 442.4316167 3544
-1917.108916 439.9348243 3524
-1907.996583 439.9348243 3524
-1877.869356 435.066079 3485
-1868.857868 435.066079 3485
-1849.172944 432.5692866 3465
-1820.031902 427.825381 3427
-1811.170391 427.825381 3427
-1792.316505 425.4534282 3408
-1773.560878 423.0814754 3389
-1764.797627 423.0814754 3389
-1746.707548 420.8343623 3371
-1737.990841 420.8343623 3371
-1720.040395 418.5872491 3353
-1711.370232 418.5872491 3353
-1711.840719 420.8343623 3371
-1703.124012 420.8343623 3371
-1694.407305 420.8343623 3371
-2652.857279 444.0775665 3485
-2628.673075 441.5290582 3465
-2605.348353 439.1079754 3446
-2596.437712 439.1079754 3446
-2573.26038 436.6868925 3427
-2564.398868 436.6868925 3427
-2555.537357 436.6868925 3427
-2532.556545 434.2658097 3408
-2523.744164 434.2658097 3408
-2500.910743 431.8447268 3389
-2478.910945 429.5510694 3371
-2470.194238 429.5510694 3371
-2461.477531 429.5510694 3371
-2465.857737 431.8447268 3389
-2470.869875 434.2658097 3408
-2462.057494 434.2658097 3408
-2466.922242 436.6868925 3427
-2458.06073 436.6868925 3427
-2476.356958 441.5290582 3465
-2481.639017 444.0775665 3485
-2472.627529 444.0775665 3485
-2477.047521 446.4986494 3504
-2467.986903 446.4986494 3504
-2458.926286 446.4986494 3504
-2463.84892 449.0471577 3524
-2468.668122 451.5956659 3544
-2459.504073 451.5956659 3544
-2464.859533 454.2715996 3565
-2455.641182 454.2715996 3565
-2460.147503 456.8201079 3585
-2479.590645 462.1719753 3627
-2470.211975 462.1719753 3627
-2475.759782 464.9753344 3649
-2480.517924 467.651268 3670
-2471.028065 467.651268 3670
-2476.294021 470.4546271 3692
-2496.813262 476.1887708 3737
-2487.150155 476.1887708 3737
-2477.487047 476.1887708 3737
-2482.352205 478.9921299 3759
-2472.632211 478.9921299 3759
-2462.912216 478.9921299 3759
-2453.192221 478.9921299 3759
-2443.472227 478.9921299 3759
-2448.643507 481.9229144 3782
-2438.864039 481.9229144 3782
-2429.084571 481.9229144 3782
-2419.305103 481.9229144 3782
-2409.525635 481.9229144 3782
-2414.340076 484.8536989 3805
-2404.501134 484.8536989 3805
-2394.662193 484.8536989 3805
-2399.865501 487.9119088 3829
-2389.964501 487.9119088 3829
-2380.063501 487.9119088 3829
-2370.162501 487.9119088 3829
-2360.261501 487.9119088 3829
-2350.360501 487.9119088 3829
-2369.79929 494.0283287 3877
-2359.774172 494.0283287 3877
-2349.749054 494.0283287 3877
-2339.723936 494.0283287 3877
-2315.277159 490.9701187 3853
-2305.3141 490.9701187 3853
-2281.0535 487.9119088 3829
-2256.917018 484.8536989 3805
-2247.078076 484.8536989 3805
-2237.239135 484.8536989 3805
-2200.47236 478.9921299 3759
-2190.752365 478.9921299 3759
-2168.267616 476.1887708 3737
-2158.604509 476.1887708 3737
-2110.413418 467.651268 3670
-2076.307834 462.1719753 3627
-2066.929164 462.1719753 3627
-2033.724433 456.8201079 3585
-2024.454366 456.8201079 3585
-2015.1843 456.8201079 3585
-1982.973512 451.5956659 3544
-1973.809463 451.5956659 3544
-1942.471086 446.4986494 3504
-1911.891345 441.5290582 3465
-1902.931574 441.5290582 3465
-1883.586387 439.1079754 3446
-1864.33946 436.6868925 3427
-1855.477948 436.6868925 3427
-1846.616437 436.6868925 3427
-1837.754925 436.6868925 3427
-1808.613884 431.8447268 3389
-1790.291083 429.5510694 3371
-1781.574376 429.5510694 3371
-1763.391209 427.2574119 3353
-1754.721046 427.2574119 3353
-1746.050883 427.2574119 3353
-1728.053893 424.9637545 3335
-1719.430274 424.9637545 3335
-1710.806656 424.9637545 3335
-1702.183037 424.9637545 3335
-1693.559418 424.9637545 3335
-1684.9358 424.9637545 3335
-1685.359743 427.2574119 3353
-2652.857279 453.089054 3485
-2628.673075 450.4888299 3465
-2605.348353 448.0186169 3446
-2596.437712 448.0186169 3446
-2573.26038 445.548404 3427
-2564.398868 445.548404 3427
-2555.537357 445.548404 3427
-2532.556545 443.0781911 3408
-2523.744164 443.0781911 3408
-2487.627652 438.2677765 3371
-2465.674399 435.9275748 3353
-2457.004236 435.9275748 3353
-2448.334073 435.9275748 3353
-2452.760824 438.2677765 3371
-2457.094486 440.6079782 3389
-2448.331234 440.6079782 3389
-2453.245113 443.0781911 3408
-2444.432731 443.0781911 3408
-2449.199219 445.548404 3427
-2467.397186 450.4888299 3465
-2458.437414 450.4888299 3465
-2449.477643 450.4888299 3465
-2454.604554 453.089054 3485
-2445.593067 453.089054 3485
-2449.865668 455.5592669 3504
-2454.736586 458.159491 3524
-2445.624253 458.159491 3524
-2450.340024 460.7597152 3544
-2441.175974 460.7597152 3544
-2460.147503 466.0901746 3585
-2465.234041 468.82041 3606
-2455.909672 468.82041 3606
-2475.759782 474.4108918 3649
-2480.517924 477.1411272 3670
-2471.028065 477.1411272 3670
-2491.049835 482.8616202 3714
-2511.512189 488.7121245 3759
-2501.792195 488.7121245 3759
-2492.0722 488.7121245 3759
-2497.540846 491.7023823 3782
-2487.761378 491.7023823 3782
-2493.051605 494.69264 3805
-2483.212664 494.69264 3805
-2473.373722 494.69264 3805
-2463.534781 494.69264 3805
-2453.69584 494.69264 3805
-2443.856899 494.69264 3805
-2434.017958 494.69264 3805
-2424.179017 494.69264 3805
-2414.340076 494.69264 3805
-2419.667502 497.812909 3829
-2409.766502 497.812909 3829
-2399.865501 497.812909 3829
-2389.964501 497.812909 3829
-2380.063501 497.812909 3829
-2370.162501 497.812909 3829
-2360.261501 497.812909 3829
-2350.360501 497.812909 3829
-2369.79929 504.0534469 3877
-2359.774172 504.0534469 3877
-2349.749054 504.0534469 3877
-2339.723936 504.0534469 3877
-2315.277159 500.9331779 3853
-2305.3141 500.9331779 3853
-2281.0535 497.812909 3829
-2256.917018 494.69264 3805
-2247.078076 494.69264 3805
-2237.239135 494.69264 3805
-2200.47236 488.7121245 3759
-2190.752365 488.7121245 3759
-2168.267616 485.851878 3737
-2158.604509 485.851878 3737
-2110.413418 477.1411272 3670
-2076.307834 471.5506453 3627
-2066.929164 471.5506453 3627
-2033.724433 466.0901746 3585
-2024.454366 466.0901746 3585
-2015.1843 466.0901746 3585
-1982.973512 460.7597152 3544
-1973.809463 460.7597152 3544
-1942.471086 455.5592669 3504
-1911.891345 450.4888299 3465
-1902.931574 450.4888299 3465
-1883.586387 448.0186169 3446
-1864.33946 445.548404 3427
-1855.477948 445.548404 3427
-1846.616437 445.548404 3427
-1837.754925 445.548404 3427
-1808.613884 440.6079782 3389
-1790.291083 438.2677765 3371
-1781.574376 438.2677765 3371
-1763.391209 435.9275748 3353
-1754.721046 435.9275748 3353
-1746.050883 435.9275748 3353
-1728.053893 433.587373 3335
-1719.430274 433.587373 3335
-1710.806656 433.587373 3335
-1702.183037 433.587373 3335
-1693.559418 433.587373 3335
-1684.9358 433.587373 3335
-1685.359743 435.9275748 3353
-2682.544921 467.2718244 3524
-2643.845791 462.1005415 3485
-2619.713304 459.4486015 3465
-2610.753532 459.4486015 3465
-2573.26038 454.4099155 3427
-2564.398868 454.4099155 3427
-2555.537357 454.4099155 3427
-2532.556545 451.8905725 3408
-2523.744164 451.8905725 3408
-2487.627652 446.9844836 3371
-2452.437853 442.2109916 3335
-2443.814234 442.2109916 3335
-2435.190616 442.2109916 3335
-2439.663911 444.5977376 3353
-2430.993748 444.5977376 3353
-2435.32741 446.9844836 3371
-2453.245113 451.8905725 3408
-2444.432731 451.8905725 3408
-2449.199219 454.4099155 3427
-2453.867447 456.9292585 3446
-2444.956805 456.9292585 3446
-2449.477643 459.4486015 3465
-2454.604554 462.1005415 3485
-2445.593067 462.1005415 3485
-2449.865668 464.6198845 3504
-2454.736586 467.2718244 3524
-2445.624253 467.2718244 3524
-2450.340024 469.9237644 3544
-2441.175974 469.9237644 3544
-2460.147503 475.3602414 3585
-2465.234041 478.1447783 3606
-2455.909672 478.1447783 3606
-2475.759782 483.8464493 3649
-2480.517924 486.6309863 3670
-2471.028065 486.6309863 3670
-2491.049835 492.4652542 3714
-2511.512189 498.4321192 3759
-2501.792195 498.4321192 3759
-2492.0722 498.4321192 3759
-2497.540846 501.4818502 3782
-2487.761378 501.4818502 3782
-2493.051605 504.5315811 3805
-2483.212664 504.5315811 3805
-2473.373722 504.5315811 3805
-2463.534781 504.5315811 3805
-2453.69584 504.5315811 3805
-2443.856899 504.5315811 3805
-2434.017958 504.5315811 3805
-2424.179017 504.5315811 3805
-2414.340076 504.5315811 3805
-2419.667502 507.7139091 3829
-2409.766502 507.7139091 3829
-2399.865501 507.7139091 3829
-2389.964501 507.7139091 3829
-2380.063501 507.7139091 3829
-2370.162501 507.7139091 3829
-2360.261501 507.7139091 3829
-2350.360501 507.7139091 3829
-2369.79929 514.0785651 3877
-2359.774172 514.0785651 3877
-2335.203277 510.8962371 3853
-2325.240218 510.8962371 3853
-2300.8555 507.7139091 3829
-2290.9545 507.7139091 3829
-2281.0535 507.7139091 3829
-2243.274681 501.4818502 3782
-2233.495213 501.4818502 3782
-2210.192355 498.4321192 3759
-2174.129914 492.4652542 3714
-2164.52628 492.4652542 3714
-2129.393137 486.6309863 3670
-2119.903277 486.6309863 3670
-2085.686504 480.9293153 3627
-2052.264567 475.3602414 3585
-2042.9945 475.3602414 3585
-2010.46566 469.9237644 3544
-2001.301611 469.9237644 3544
-1980.89525 467.2718244 3524
-1949.961256 462.1005415 3485
-1940.949768 462.1005415 3485
-1910.318311 456.9292585 3446
-1880.440319 451.8905725 3408
-1871.627938 451.8905725 3408
-1852.430141 449.3712296 3389
-1843.666889 449.3712296 3389
-1825.157912 446.9844836 3371
-1806.742023 444.5977376 3353
-1798.07186 444.5977376 3353
-1779.795604 442.2109916 3335
-1761.612437 439.8242456 3317
-1753.035362 439.8242456 3317
-1734.991828 437.4374997 3299
-1726.461298 437.4374997 3299
-1717.930768 437.4374997 3299
-1709.400238 437.4374997 3299
-1700.869707 437.4374997 3299
-1683.618424 435.1833507 3282
-1675.131852 435.1833507 3282
-1675.278117 437.4374997 3299
-1666.747587 437.4374997 3299
-1667.264619 439.8242456 3317
-2697.769353 479.0878137 3544
-2658.259872 473.680502 3504
-2619.713304 468.4083731 3465
-2610.753532 468.4083731 3465
-2587.52707 465.8399001 3446
-2578.616429 465.8399001 3446
-2569.705787 465.8399001 3446
-2532.556545 460.702954 3408
-2523.744164 460.702954 3408
-2487.627652 455.7011907 3371
-2452.437853 450.8346102 3335
-2443.814234 450.8346102 3335
-2435.190616 450.8346102 3335
-2439.663911 453.2679004 3353
-2430.993748 453.2679004 3353
-2435.32741 455.7011907 3371
-2453.245113 460.702954 3408
-2444.432731 460.702954 3408
-2449.199219 463.271427 3427
-2453.867447 465.8399001 3446
-2444.956805 465.8399001 3446
-2449.477643 468.4083731 3465
-2454.604554 471.1120289 3485
-2445.593067 471.1120289 3485
-2449.865668 473.680502 3504
-2454.736586 476.3841578 3524
-2445.624253 476.3841578 3524
-2450.340024 479.0878137 3544
-2441.175974 479.0878137 3544
-2460.147503 484.6303081 3585
-2479.590645 490.3079854 3627
-2470.211975 490.3079854 3627
-2490.007783 496.1208454 3670
-2510.257103 502.0688882 3714
-2500.653469 502.0688882 3714
-2506.476369 505.1780924 3737
-2526.87925 511.2613181 3782
-2517.099782 511.2613181 3782
-2522.568428 514.3705223 3805
-2528.578503 517.6149093 3829
-2518.677503 517.6149093 3829
-2508.776503 517.6149093 3829
-2498.875503 517.6149093 3829
-2488.974503 517.6149093 3829
-2479.073503 517.6149093 3829
-2469.172502 517.6149093 3829
-2459.271502 517.6149093 3829
-2449.370502 517.6149093 3829
-2439.469502 517.6149093 3829
-2429.568502 517.6149093 3829
-2419.667502 517.6149093 3829
-2409.766502 517.6149093 3829
-2399.865501 517.6149093 3829
-2389.964501 517.6149093 3829
-2394.981632 520.8592963 3853
-2385.018573 520.8592963 3853
-2375.055514 520.8592963 3853
-2365.092455 520.8592963 3853
-2369.79929 524.1036833 3877
-2359.774172 524.1036833 3877
-2335.203277 520.8592963 3853
-2325.240218 520.8592963 3853
-2300.8555 517.6149093 3829
-2290.9545 517.6149093 3829
-2281.0535 517.6149093 3829
-2243.274681 511.2613181 3782
-2233.495213 511.2613181 3782
-2210.192355 508.1521139 3759
-2174.129914 502.0688882 3714
-2164.52628 502.0688882 3714
-2129.393137 496.1208454 3670
-2119.903277 496.1208454 3670
-2073.610568 487.4691467 3606
-2040.815392 481.9266523 3565
-2031.597041 481.9266523 3565
-1987.774174 473.680502 3504
-1978.713556 473.680502 3504
-1958.972743 471.1120289 3485
-1928.139595 465.8399001 3446
-1919.228953 465.8399001 3446
-1889.2527 460.702954 3408
-1860.02474 455.7011907 3371
-1851.308033 455.7011907 3371
-1832.752512 453.2679004 3353
-1824.082349 453.2679004 3353
-1805.66646 450.8346102 3335
-1777.644478 445.9680297 3299
-1769.113948 445.9680297 3299
-1760.583418 445.9680297 3299
-1733.995962 441.3718148 3265
-1725.553349 441.3718148 3265
-1717.110736 441.3718148 3265
-1708.668123 441.3718148 3265
-1700.22551 441.3718148 3265
-1682.456069 438.9385245 3247
-1674.06 438.9385245 3247
-1665.663931 438.9385245 3247
-1666.455057 441.3718148 3265
-1666.645281 443.6699222 3282
-1658.158709 443.6699222 3282
-1649.672138 443.6699222 3282
-2697.769353 488.2518629 3544
-2658.259872 482.7411195 3504
-2619.713304 477.3681447 3465
-2610.753532 477.3681447 3465
-2587.52707 474.7505416 3446
-2578.616429 474.7505416 3446
-2569.705787 474.7505416 3446
-2532.556545 469.5153354 3408
-2523.744164 469.5153354 3408
-2487.627652 464.4178978 3371
-2452.437853 459.4582288 3335
-2443.814234 459.4582288 3335
-2435.190616 459.4582288 3335
-2439.663911 461.9380633 3353
-2430.993748 461.9380633 3353
-2435.32741 464.4178978 3371
-2439.567983 466.8977323 3389
-2430.804732 466.8977323 3389
-2449.199219 472.1329385 3427
-2453.867447 474.7505416 3446
-2444.956805 474.7505416 3446
-2449.477643 477.3681447 3465
-2440.517871 477.3681447 3465
-2431.558099 477.3681447 3465
-2449.865668 482.7411195 3504
-2454.736586 485.4964912 3524
-2445.624253 485.4964912 3524
-2450.340024 488.2518629 3544
-2441.175974 488.2518629 3544
-2460.147503 493.9003749 3585
-2479.590645 499.6866554 3627
-2470.211975 499.6866554 3627
-2490.007783 505.6107045 3670
-2510.257103 511.6725222 3714
-2500.653469 511.6725222 3714
-2506.476369 514.8411997 3737
-2526.87925 521.040786 3782
-2517.099782 521.040786 3782
-2522.568428 524.2094634 3805
-2528.578503 527.5159094 3829
-2518.677503 527.5159094 3829
-2508.776503 527.5159094 3829
-2498.875503 527.5159094 3829
-2488.974503 527.5159094 3829
-2479.073503 527.5159094 3829
-2469.172502 527.5159094 3829
-2459.271502 527.5159094 3829
-2449.370502 527.5159094 3829
-2439.469502 527.5159094 3829
-2429.568502 527.5159094 3829
-2419.667502 527.5159094 3829
-2409.766502 527.5159094 3829
-2399.865501 527.5159094 3829
-2389.964501 527.5159094 3829
-2394.981632 530.8223555 3853
-2385.018573 530.8223555 3853
-2375.055514 530.8223555 3853
-2365.092455 530.8223555 3853
-2355.129395 530.8223555 3853
-2345.166336 530.8223555 3853
-2335.203277 530.8223555 3853
-2325.240218 530.8223555 3853
-2300.8555 527.5159094 3829
-2290.9545 527.5159094 3829
-2266.755959 524.2094634 3805
-2229.632344 517.8721085 3759
-2219.912349 517.8721085 3759
-2197.256938 514.8411997 3737
-2174.129914 511.6725222 3714
-2164.52628 511.6725222 3714
-2129.393137 505.6107045 3670
-2119.903277 505.6107045 3670
-2073.610568 496.7935151 3606
-2040.815392 491.1450032 3565
-2031.597041 491.1450032 3565
-1987.774174 482.7411195 3504
-1978.713556 482.7411195 3504
-1958.972743 480.1235164 3485
-1928.139595 474.7505416 3446
-1919.228953 474.7505416 3446
-1889.2527 469.5153354 3408
-1860.02474 464.4178978 3371
-1851.308033 464.4178978 3371
-1832.752512 461.9380633 3353
-1824.082349 461.9380633 3353
-1805.66646 459.4582288 3335
-1777.644478 454.4985597 3299
-1769.113948 454.4985597 3299
-1760.583418 454.4985597 3299
-1733.995962 449.8144279 3265
-1725.553349 449.8144279 3265
-1717.110736 449.8144279 3265
-1708.668123 449.8144279 3265
-1700.22551 449.8144279 3265
-1682.456069 447.3345933 3247
-1674.06 447.3345933 3247
-1665.663931 447.3345933 3247
-1666.455057 449.8144279 3265
-1666.645281 452.1564938 3282
-1658.158709 452.1564938 3282
-1649.672138 452.1564938 3282
-2728.979439 503.1704416 3585
-2673.432588 494.6088246 3524
-2634.834304 489.1350039 3485
-2625.822816 489.1350039 3485
-2601.79376 486.3279164 3465
-2592.833989 486.3279164 3465
-2569.705787 483.6611832 3446
-2532.556545 478.3277169 3408
-2523.744164 478.3277169 3408
-2487.627652 473.1346049 3371
-2439.201307 465.5554686 3317
-2430.624233 465.5554686 3317
-2422.047158 465.5554686 3317
-2413.470084 465.5554686 3317
-2404.89301 465.5554686 3317
-2422.323585 470.6082261 3353
-2426.610703 473.1346049 3371
-2417.893995 473.1346049 3371
-2435.62035 478.3277169 3408
-2440.337707 480.99445 3427
-2431.476196 480.99445 3427
-2436.046164 483.6611832 3446
-2440.517871 486.3279164 3465
-2431.558099 486.3279164 3465
-2449.865668 491.8017371 3504
-2454.736586 494.6088246 3524
-2445.624253 494.6088246 3524
-2450.340024 497.4159121 3544
-2441.175974 497.4159121 3544
-2460.147503 503.1704416 3585
-2494.630897 512.1531217 3649
-2485.19534 512.1531217 3649
-2490.007783 515.1005636 3670
-2525.802584 524.5043069 3737
-2516.139476 524.5043069 3737
-2536.658718 530.8202539 3782
-2542.24631 534.0484045 3805
-2532.407369 534.0484045 3805
-2554.390579 540.7854146 3853
-2544.42752 540.7854146 3853
-2534.464461 540.7854146 3853
-2540.2263 544.1539197 3877
-2530.201182 544.1539197 3877
-2520.176064 544.1539197 3877
-2510.150945 544.1539197 3877
-2484.649165 540.7854146 3853
-2474.686106 540.7854146 3853
-2464.723046 540.7854146 3853
-2454.759987 540.7854146 3853
-2429.568502 537.4169096 3829
-2419.667502 537.4169096 3829
-2409.766502 537.4169096 3829
-2399.865501 537.4169096 3829
-2374.984311 534.0484045 3805
-2365.14537 534.0484045 3805
-2370.162501 537.4169096 3829
-2360.261501 537.4169096 3829
-2350.360501 537.4169096 3829
-2355.129395 540.7854146 3853
-2330.5585 537.4169096 3829
-2320.6575 537.4169096 3829
-2310.7565 537.4169096 3829
-2300.8555 537.4169096 3829
-2290.9545 537.4169096 3829
-2253.054149 530.8202539 3782
-2216.583152 524.5043069 3737
-2206.920045 524.5043069 3737
-2183.733548 521.2761562 3714
-2174.129914 521.2761562 3714
-2138.882996 515.1005636 3670
-2104.443844 509.0653254 3627
-2095.065174 509.0653254 3627
-2050.033743 500.3633541 3565
-2017.344584 494.6088246 3524
-2008.23225 494.6088246 3524
-1965.649975 486.3279164 3465
-1956.690204 486.3279164 3465
-1926.37004 480.99445 3427
-1896.246398 475.6609837 3389
-1887.483146 475.6609837 3389
-1868.741447 473.1346049 3371
-1840.160934 468.0818473 3335
-1831.537316 468.0818473 3335
-1813.074882 465.5554686 3317
-1804.497808 465.5554686 3317
-1786.175008 463.0290898 3299
-1759.323801 458.257041 3265
-1750.881188 458.257041 3265
-1742.438575 458.257041 3265
-1733.995962 458.257041 3265
-1725.553349 458.257041 3265
-1707.644275 455.7306622 3247
-1699.248207 455.7306622 3247
-1690.852138 455.7306622 3247
-1682.456069 455.7306622 3247
-1674.06 455.7306622 3247
-1665.663931 455.7306622 3247
-1657.267862 455.7306622 3247
-1648.871794 455.7306622 3247
-1640.475725 455.7306622 3247
-1641.127218 458.257041 3265
-2744.965093 515.4422519 3606
-2688.605304 506.5799614 3544
-2634.834304 498.1464914 3485
-2625.822816 498.1464914 3485
-2601.79376 495.287688 3465
-2592.833989 495.287688 3465
-2569.705787 492.5718248 3446
-2532.556545 487.1400983 3408
-2523.744164 487.1400983 3408
-2487.627652 481.851312 3371
-2439.201307 474.1325429 3317
-2430.624233 474.1325429 3317
-2422.047158 474.1325429 3317
-2413.470084 474.1325429 3317
-2404.89301 474.1325429 3317
-2422.323585 479.278389 3353
-2426.610703 481.851312 3371
-2417.893995 481.851312 3371
-2435.62035 487.1400983 3408
-2440.337707 489.8559615 3427
-2431.476196 489.8559615 3427
-2436.046164 492.5718248 3446
-2454.604554 498.1464914 3485
-2445.593067 498.1464914 3485
-2449.865668 500.8623546 3504
-2468.668122 506.5799614 3544
-2459.504073 506.5799614 3544
-2464.859533 509.5817049 3565
-2455.641182 509.5817049 3565
-2474.558409 515.4422519 3606
-2494.630897 521.5886792 3649
-2485.19534 521.5886792 3649
-2504.93426 527.7351065 3692
-2540.672173 537.3120979 3759
-2530.952179 537.3120979 3759
-2536.658718 540.5997218 3782
-2558.281504 547.3179097 3829
-2548.380504 547.3179097 3829
-2554.390579 550.7484738 3853
-2544.42752 550.7484738 3853
-2534.464461 550.7484738 3853
-2540.2263 554.1790379 3877
-2530.201182 554.1790379 3877
-2520.176064 554.1790379 3877
-2510.150945 554.1790379 3877
-2484.649165 550.7484738 3853
-2474.686106 550.7484738 3853
-2464.723046 550.7484738 3853
-2454.759987 550.7484738 3853
-2429.568502 547.3179097 3829
-2419.667502 547.3179097 3829
-2409.766502 547.3179097 3829
-2399.865501 547.3179097 3829
-2374.984311 543.8873457 3805
-2365.14537 543.8873457 3805
-2370.162501 547.3179097 3829
-2360.261501 547.3179097 3829
-2350.360501 547.3179097 3829
-2355.129395 550.7484738 3853
-2330.5585 547.3179097 3829
-2320.6575 547.3179097 3829
-2310.7565 547.3179097 3829
-2300.8555 547.3179097 3829
-2290.9545 547.3179097 3829
-2253.054149 540.5997218 3782
-2216.583152 534.1674141 3737
-2206.920045 534.1674141 3737
-2183.733548 530.8797902 3714
-2174.129914 530.8797902 3714
-2138.882996 524.5904228 3670
-2104.443844 518.4439955 3627
-2095.065174 518.4439955 3627
-2050.033743 509.5817049 3565
-2017.344584 503.721158 3524
-2008.23225 503.721158 3524
-1965.649975 495.287688 3465
-1956.690204 495.287688 3465
-1926.37004 489.8559615 3427
-1896.246398 484.4242351 3389
-1887.483146 484.4242351 3389
-1868.741447 481.851312 3371
-1840.160934 476.7054659 3335
-1831.537316 476.7054659 3335
-1813.074882 474.1325429 3317
-1804.497808 474.1325429 3317
-1786.175008 471.5596198 3299
-1759.323801 466.699654 3265
-1750.881188 466.699654 3265
-1742.438575 466.699654 3265
-1733.995962 466.699654 3265
-1725.553349 466.699654 3265
-1707.644275 464.126731 3247
-1699.248207 464.126731 3247
-1690.852138 464.126731 3247
-1682.456069 464.126731 3247
-1674.06 464.126731 3247
-1665.663931 464.126731 3247
-1657.267862 464.126731 3247
-1648.871794 464.126731 3247
-1640.475725 464.126731 3247
-1641.127218 466.699654 3265
-2744.965093 524.7666203 3606
-2688.605304 515.7440106 3544
-2634.834304 507.1579788 3485
-2625.822816 507.1579788 3485
-2587.52707 501.4824663 3446
-2578.616429 501.4824663 3446
-2541.368927 495.9524797 3408
-2505.061067 490.5680191 3371
-2496.344359 490.5680191 3371
-2461.061472 485.3290845 3335
-2413.463578 477.6162085 3282
-2404.977007 477.6162085 3282
-2396.490435 477.6162085 3282
-2388.003864 477.6162085 3282
-2379.517292 477.6162085 3282
-2383.31211 480.0901498 3299
-2413.653422 487.9485518 3353
-2404.983259 487.9485518 3353
-2409.177288 490.5680191 3371
-2413.278229 493.1874865 3389
-2404.514978 493.1874865 3389
-2422.614684 498.717473 3427
-2427.135522 501.4824663 3446
-2418.22488 501.4824663 3446
-2436.581579 507.1579788 3485
-2454.736586 512.8334914 3524
-2445.624253 512.8334914 3524
-2450.340024 515.7440106 3544
-2441.175974 515.7440106 3544
-2460.147503 521.7105751 3585
-2479.590645 527.8226655 3627
-2470.211975 527.8226655 3627
-2504.93426 537.2818531 3692
-2525.802584 543.8305214 3737
-2516.139476 543.8305214 3737
-2521.232184 547.0320925 3759
-2526.87925 550.3791897 3782
-2517.099782 550.3791897 3782
-2522.568428 553.7262868 3805
-2544.42752 560.711533 3853
-2534.464461 560.711533 3853
-2524.501402 560.711533 3853
-2514.538342 560.711533 3853
-2488.974503 557.2189099 3829
-2479.073503 557.2189099 3829
-2469.172502 557.2189099 3829
-2459.271502 557.2189099 3829
-2449.370502 557.2189099 3829
-2424.179017 553.7262868 3805
-2414.340076 553.7262868 3805
-2389.966699 550.3791897 3782
-2351.866653 543.8305214 3737
-2342.203546 543.8305214 3737
-2318.184423 540.4834242 3714
-2308.580789 540.4834242 3714
-2313.214225 543.8305214 3737
-2289.373521 540.4834242 3714
-2279.769887 540.4834242 3714
-2284.224903 543.8305214 3737
-2274.561796 543.8305214 3737
-2264.898688 543.8305214 3737
-2241.355352 540.4834242 3714
-2231.751718 540.4834242 3714
-2222.148084 540.4834242 3714
-2199.43837 537.2818531 3692
-2189.891624 537.2818531 3692
-2180.344877 537.2818531 3692
-2145.515271 531.0242367 3649
-2136.079713 531.0242367 3649
-2113.822514 527.8226655 3627
-2080.074767 521.7105751 3585
-2070.8047 521.7105751 3585
-2026.456917 512.8334914 3524
-1995.018693 507.1579788 3485
-1986.007206 507.1579788 3485
-1933.314608 495.9524797 3408
-1924.502226 495.9524797 3408
-1894.891569 490.5680191 3371
-1866.03179 485.3290845 3335
-1857.408171 485.3290845 3335
-1838.806105 482.7096172 3317
-1801.536867 475.1422671 3265
-1793.094254 475.1422671 3265
-1774.812826 472.5227998 3247
-1766.416757 472.5227998 3247
-1749.357821 470.1943844 3231
-1731.842786 467.720443 3214
-1723.532049 467.720443 3214
-1715.221311 467.720443 3214
-1706.910573 467.720443 3214
-1698.599836 467.720443 3214
-1690.289098 467.720443 3214
-1681.97836 467.720443 3214
-1673.667623 467.720443 3214
-1665.356885 467.720443 3214
-1657.046147 467.720443 3214
-1648.73541 467.720443 3214
-1640.424672 467.720443 3214
-1632.113934 467.720443 3214
-1623.803197 467.720443 3214
-1624.037379 470.1943844 3231
-2744.965093 534.0909887 3606
-2688.605304 524.9080599 3544
-2634.834304 516.1694663 3485
-2625.822816 516.1694663 3485
-2587.52707 510.3931079 3446
-2578.616429 510.3931079 3446
-2541.368927 504.7648612 3408
-2505.061067 499.2847262 3371
-2496.344359 499.2847262 3371
-2461.061472 493.9527031 3335
-2413.463578 486.1027801 3282
-2404.977007 486.1027801 3282
-2370.933712 480.9188686 3247
-2362.537643 480.9188686 3247
-2354.141574 480.9188686 3247
-2371.03072 486.1027801 3282
-2374.78158 488.6206799 3299
-2366.25105 488.6206799 3299
-2383.448904 493.9527031 3335
-2374.825286 493.9527031 3335
-2366.201667 493.9527031 3335
-2383.027167 499.2847262 3371
-2386.988475 501.9507378 3389
-2378.225223 501.9507378 3389
-2409.314239 510.3931079 3446
-2400.403597 510.3931079 3446
-2418.558604 516.1694663 3485
-2436.51192 521.9458248 3524
-2427.399586 521.9458248 3524
-2432.011925 524.9080599 3544
-2450.877437 530.9806418 3585
-2441.60737 530.9806418 3585
-2446.585304 534.0909887 3606
-2466.324225 540.4597942 3649
-2456.888667 540.4597942 3649
-2447.45311 540.4597942 3649
-2438.017552 540.4597942 3649
-2428.581995 540.4597942 3649
-2433.068628 543.570141 3670
-2423.578769 543.570141 3670
-2400.275322 540.4597942 3649
-2390.839765 540.4597942 3649
-2381.404207 540.4597942 3649
-2357.667935 537.2013355 3627
-2348.289265 537.2013355 3627
-2338.910595 537.2013355 3627
-2329.531924 537.2013355 3627
-2293.286302 530.9806418 3585
-2271.274164 528.0184067 3565
-2262.055813 528.0184067 3565
-2239.566891 524.9080599 3544
-2217.815918 521.9458248 3524
-2208.703585 521.9458248 3524
-2199.591252 521.9458248 3524
-2178.047142 518.9835897 3504
-2168.986525 518.9835897 3504
-2159.925907 518.9835897 3504
-2150.86529 518.9835897 3504
-2141.804672 518.9835897 3504
-2144.917251 521.9458248 3524
-2147.926399 524.9080599 3544
-2138.762349 524.9080599 3544
-2129.5983 524.9080599 3544
-2120.434251 524.9080599 3544
-2099.355584 521.9458248 3524
-2090.243251 521.9458248 3524
-2081.130918 521.9458248 3524
-2060.259114 518.9835897 3504
-2051.198497 518.9835897 3504
-2031.064643 516.1694663 3485
-1999.424727 510.3931079 3446
-1990.514086 510.3931079 3446
-1948.825906 501.9507378 3389
-1940.062654 501.9507378 3389
-1910.783977 496.6187147 3353
-1871.480308 488.6206799 3299
-1862.949778 488.6206799 3299
-1835.307319 483.5848802 3265
-1807.840694 478.5490805 3231
-1799.485997 478.5490805 3231
-1781.707212 476.0311807 3214
-1773.396475 476.0311807 3214
-1746.962579 471.1434928 3181
-1729.99156 468.7737047 3165
-1721.807526 468.7737047 3165
-1704.960624 466.4039166 3149
-1696.817963 466.4039166 3149
-1688.675302 466.4039166 3149
-1680.532641 466.4039166 3149
-1672.38998 466.4039166 3149
-1664.247319 466.4039166 3149
-1656.104658 466.4039166 3149
-1647.961996 466.4039166 3149
-1639.819335 466.4039166 3149
-1631.676674 466.4039166 3149
-1623.534013 466.4039166 3149
-1615.391352 466.4039166 3149
-1615.415086 468.7737047 3165
-1607.231052 468.7737047 3165
-1599.047018 468.7737047 3165
-1598.905262 471.1434928 3181
-2713.755007 537.2367576 3565
-2658.259872 528.0442072 3504
-2619.713304 522.1670028 3465
-2610.753532 522.1670028 3465
-2573.26038 516.440496 3427
-2564.398868 516.440496 3427
-2527.200497 510.7139892 3389
-2491.684888 505.2888775 3353
-2483.014725 505.2888775 3353
-2421.95015 494.5893516 3282
-2387.72585 489.3149374 3247
-2379.329781 489.3149374 3247
-2370.933712 489.3149374 3247
-2362.537643 489.3149374 3247
-2354.141574 489.3149374 3247
-2371.03072 494.5893516 3282
-2374.78158 497.1512099 3299
-2366.25105 497.1512099 3299
-2383.448904 502.5763216 3335
-2374.825286 502.5763216 3335
-2366.201667 502.5763216 3335
-2383.027167 508.0014334 3371
-2386.988475 510.7139892 3389
-2378.225223 510.7139892 3389
-2409.314239 519.3037494 3446
-2400.403597 519.3037494 3446
-2418.558604 525.1809538 3485
-2436.51192 531.0581582 3524
-2427.399586 531.0581582 3524
-2432.011925 534.0721091 3544
-2450.877437 540.2507086 3585
-2441.60737 540.2507086 3585
-2446.585304 543.4153571 3606
-2466.324225 549.8953516 3649
-2456.888667 549.8953516 3649
-2447.45311 549.8953516 3649
-2438.017552 549.8953516 3649
-2428.581995 549.8953516 3649
-2433.068628 553.0600001 3670
-2423.578769 553.0600001 3670
-2400.275322 549.8953516 3649
-2390.839765 549.8953516 3649
-2381.404207 549.8953516 3649
-2357.667935 546.5800056 3627
-2348.289265 546.5800056 3627
-2338.910595 546.5800056 3627
-2329.531924 546.5800056 3627
-2293.286302 540.2507086 3585
-2271.274164 537.2367576 3565
-2262.055813 537.2367576 3565
-2239.566891 534.0721091 3544
-2217.815918 531.0581582 3524
-2208.703585 531.0581582 3524
-2199.591252 531.0581582 3524
-2178.047142 528.0442072 3504
-2168.986525 528.0442072 3504
-2159.925907 528.0442072 3504
-2150.86529 528.0442072 3504
-2141.804672 528.0442072 3504
-2144.917251 531.0581582 3524
-2147.926399 534.0721091 3544
-2138.762349 534.0721091 3544
-2129.5983 534.0721091 3544
-2120.434251 534.0721091 3544
-2099.355584 531.0581582 3524
-2090.243251 531.0581582 3524
-2081.130918 531.0581582 3524
-2060.259114 528.0442072 3504
-2051.198497 528.0442072 3504
-2031.064643 525.1809538 3485
-1999.424727 519.3037494 3446
-1990.514086 519.3037494 3446
-1948.825906 510.7139892 3389
-1940.062654 510.7139892 3389
-1910.783977 505.2888775 3353
-1871.480308 497.1512099 3299
-1862.949778 497.1512099 3299
-1835.307319 492.0274933 3265
-1807.840694 486.9037767 3231
-1799.485997 486.9037767 3231
-1781.707212 484.3419184 3214
-1773.396475 484.3419184 3214
-1746.962579 479.3688993 3181
-1729.99156 476.9577385 3165
-1721.807526 476.9577385 3165
-1704.960624 474.5465778 3149
-1696.817963 474.5465778 3149
-1688.675302 474.5465778 3149
-1680.532641 474.5465778 3149
-1672.38998 474.5465778 3149
-1664.247319 474.5465778 3149
-1656.104658 474.5465778 3149
-1647.961996 474.5465778 3149
-1639.819335 474.5465778 3149
-1631.676674 474.5465778 3149
-1623.534013 474.5465778 3149
-1615.391352 474.5465778 3149
-1615.415086 476.9577385 3165
-1607.231052 476.9577385 3165
-1599.047018 476.9577385 3165
-1598.905262 479.3688993 3181
-2682.544921 540.1704916 3524
-2628.673075 531.1267745 3465
-2590.983403 525.3020075 3427
-2582.121891 525.3020075 3427
-2544.727 519.4772406 3389
-2535.963748 519.4772406 3389
-2513.777774 516.7181405 3371
-2478.308709 511.1999402 3335
-2469.68509 511.1999402 3335
-2409.405009 500.4701064 3265
-2387.72585 497.7110063 3247
-2355.148111 492.652656 3214
-2334.424108 490.0468392 3197
-2326.157328 490.0468392 3197
-2317.890549 490.0468392 3197
-2321.90516 492.652656 3214
-2337.349437 497.7110063 3247
-2328.953368 497.7110063 3247
-2333.421491 500.4701064 3265
-2337.084434 503.0759232 3282
-2328.597863 503.0759232 3282
-2320.111291 503.0759232 3282
-2311.624719 503.0759232 3282
-2315.06787 505.68174 3299
-2331.707193 511.1999402 3335
-2323.083574 511.1999402 3335
-2339.443631 516.7181405 3371
-2343.172218 519.4772406 3389
-2334.408967 519.4772406 3389
-2338.684154 522.3896241 3408
-2355.85039 528.214391 3446
-2346.939748 528.214391 3446
-2350.920155 531.1267745 3465
-2355.478192 534.1924413 3485
-2346.466705 534.1924413 3485
-2337.455217 534.1924413 3485
-2328.44373 534.1924413 3485
-2306.121297 531.1267745 3465
-2297.161525 531.1267745 3465
-2275.654615 528.214391 3446
-2254.245966 525.3020075 3427
-2245.384454 525.3020075 3427
-2236.522943 525.3020075 3427
-2227.661431 525.3020075 3427
-2218.79992 525.3020075 3427
-2185.433693 519.4772406 3389
-2176.670442 519.4772406 3389
-2167.90719 519.4772406 3389
-2147.676075 516.7181405 3371
-2138.959368 516.7181405 3371
-2118.867885 513.9590403 3353
-2110.197723 513.9590403 3353
-2101.52756 513.9590403 3353
-2081.622254 511.1999402 3335
-2072.998636 511.1999402 3335
-2064.375017 511.1999402 3335
-2055.751399 511.1999402 3335
-2058.176745 513.9590403 3353
-2049.506583 513.9590403 3353
-2040.83642 513.9590403 3353
-2032.166257 513.9590403 3353
-2023.496094 513.9590403 3353
-2014.825931 513.9590403 3353
-2016.925468 516.7181405 3371
-2008.208761 516.7181405 3371
-1999.492054 516.7181405 3371
-1990.775347 516.7181405 3371
-1971.475117 513.9590403 3353
-1962.804954 513.9590403 3353
-1943.644357 511.1999402 3335
-1914.132958 505.68174 3299
-1905.602428 505.68174 3299
-1877.520384 500.4701064 3265
-1869.077771 500.4701064 3265
-1831.571638 492.652656 3214
-1804.540425 487.5943058 3181
-1796.315018 487.5943058 3181
-1770.101913 482.6892389 3149
-1753.006776 480.2367055 3133
-1744.905487 480.2367055 3133
-1727.934468 477.784172 3117
-1719.874552 477.784172 3117
-1703.027651 475.3316386 3101
-1695.009108 475.3316386 3101
-1686.990565 475.3316386 3101
-1670.850583 473.0323885 3086
-1662.870827 473.0323885 3086
-1654.891071 473.0323885 3086
-1646.911315 473.0323885 3086
-1638.931558 473.0323885 3086
-1630.951802 473.0323885 3086
-1622.972046 473.0323885 3086
-1622.84222 475.3316386 3101
-1614.823677 475.3316386 3101
-1606.805134 475.3316386 3101
-1598.786591 475.3316386 3101
-1590.768048 475.3316386 3101
-1582.749505 475.3316386 3101
-1582.855984 477.784172 3117
-1574.796068 477.784172 3117
-1574.77843 480.2367055 3133
-2682.544921 549.2828249 3524
-2628.673075 540.0865461 3465
-2590.983403 534.163519 3427
-2582.121891 534.163519 3427
-2544.727 528.240492 3389
-2535.963748 528.240492 3389
-2513.777774 525.4348476 3371
-2478.308709 519.8235588 3335
-2469.68509 519.8235588 3335
-2409.405009 508.9127195 3265
-2400.962396 508.9127195 3265
-2355.148111 500.9633937 3214
-2334.424108 498.3136184 3197
