# .PCD v0.7 - Point Cloud Data file format
VERSION 0.7
FIELDS x y z
SIZE 4 4 4
TYPE F F F
COUNT 1 1 1
WIDTH 1663
HEIGHT 1
VIEWPOINT 0 0 0 1 0 0 0
POINTS 1663
DATA ascii
2456.274335 354.5675532 4248
2467.258782 354.5675532 4248
2478.243229 354.5675532 4248
2489.227676 354.5675532 4248
2517.868989 357.0715614 4278
2528.93101 357.0715614 4278
2522.181018 354.5675532 4248
2533.165466 354.5675532 4248
1914.774043 337.8430212 3926
1900.901065 333.6264374 3877
1910.926183 333.6264374 3877
1920.951301 333.6264374 3877
1930.976419 333.6264374 3877
1941.001537 333.6264374 3877
1951.026656 333.6264374 3877
1961.051774 333.6264374 3877
1971.076892 333.6264374 3877
1968.838289 331.5611719 3853
1978.801348 331.5611719 3853
1988.764407 331.5611719 3853
1998.727466 331.5611719 3853
2008.690525 331.5611719 3853
2018.653585 331.5611719 3853
2041.252719 333.6264374 3877
2051.277838 333.6264374 3877
2087.355018 337.8430212 3926
2124.219867 342.1456577 3976
2134.500978 342.1456577 3976
2144.78209 342.1456577 3976
2155.063202 342.1456577 3976
2193.663706 346.6203997 4028
2204.079279 346.6203997 4028
2214.494851 346.6203997 4028
2239.271812 348.8577707 4054
2264.738181 351.1811945 4081
2275.290801 351.1811945 4081
2316.089818 355.8280419 4135
2342.53779 358.2375184 4163
2353.302445 358.2375184 4163
2379.967623 360.6469949 4191
2390.80468 360.6469949 4191
2417.687065 363.0564713 4219
2428.596524 363.0564713 4219
2439.505983 363.0564713 4219
2467.258782 365.5520005 4248
2478.243229 365.5520005 4248
2489.227676 365.5520005 4248
2500.212124 365.5520005 4248
2511.196571 365.5520005 4248
2522.181018 365.5520005 4248
2533.165466 365.5520005 4248
1914.774043 347.9948433 3926
1900.901065 343.6515556 3877
1910.926183 343.6515556 3877
1920.951301 343.6515556 3877
1930.976419 343.6515556 3877
1941.001537 343.6515556 3877
1951.026656 343.6515556 3877
1961.051774 343.6515556 3877
1971.076892 343.6515556 3877
1968.838289 341.524231 3853
1978.801348 341.524231 3853
1988.764407 341.524231 3853
1998.727466 341.524231 3853
2008.690525 341.524231 3853
2018.653585 341.524231 3853
2041.252719 343.6515556 3877
2051.277838 343.6515556 3877
2087.355018 347.9948433 3926
2124.219867 352.4267694 3976
2134.500978 352.4267694 3976
2144.78209 352.4267694 3976
2155.063202 352.4267694 3976
2193.663706 357.0359726 4028
2204.079279 357.0359726 4028
2214.494851 357.0359726 4028
2239.271812 359.3405743 4054
2264.738181 361.7338144 4081
2275.290801 361.7338144 4081
2316.089818 366.5202947 4135
2342.53779 369.0021733 4163
2353.302445 369.0021733 4163
2379.967623 371.484052 4191
2390.80468 371.484052 4191
2417.687065 373.9659306 4219
2428.596524 373.9659306 4219
2439.505983 373.9659306 4219
2467.258782 376.5364478 4248
2478.243229 376.5364478 4248
2489.227676 376.5364478 4248
2500.212124 376.5364478 4248
2511.196571 376.5364478 4248
2522.181018 376.5364478 4248
2533.165466 376.5364478 4248
1914.774043 358.1466653 3926
1900.901065 353.6766738 3877
1910.926183 353.6766738 3877
1920.951301 353.6766738 3877
1930.976419 353.6766738 3877
1928.986052 351.4872902 3853
1926.871567 349.2979066 3829
1936.772567 349.2979066 3829
1946.673567 349.2979066 3829
1956.574567 349.2979066 3829
1966.475567 349.2979066 3829
1963.988728 347.108523 3805
1973.827669 347.108523 3805
1971.675984 345.0103638 3782
1981.455452 345.0103638 3782
2003.344493 347.108523 3805
2013.183434 347.108523 3805
2048.542762 351.4872902 3853
2071.328074 353.6766738 3877
2081.353192 353.6766738 3877
2104.324681 355.8660574 3901
2114.411859 355.8660574 3901
2151.729221 360.4272732 3951
2161.945688 360.4272732 3951
2172.162154 360.4272732 3951
2196.187648 362.7078811 3976
2220.897379 365.0797133 4002
2231.245721 365.0797133 4002
2270.720223 369.8233778 4054
2281.203026 369.8233778 4054
2322.211492 374.7494908 4108
2348.166576 377.2125474 4135
2358.858829 377.2125474 4135
2385.596409 379.7668282 4163
2412.478794 382.3211091 4191
2423.315851 382.3211091 4191
2450.415443 384.8753899 4219
2461.324902 384.8753899 4219
2472.234361 384.8753899 4219
2500.212124 387.5208951 4248
2511.196571 387.5208951 4248
2522.181018 387.5208951 4248
2533.165466 387.5208951 4248
1926.96695 370.6437401 3951
1912.668314 365.9532346 3901
1922.755491 365.9532346 3901
1920.951301 363.701792 3877
1930.976419 363.701792 3877
1916.970567 359.1989068 3829
1926.871567 359.1989068 3829
1936.772567 359.1989068 3829
1934.471905 356.9474642 3805
1944.310846 356.9474642 3805
1954.149787 356.9474642 3805
1940.245369 352.6321992 3759
1949.965364 352.6321992 3759
1948.216064 350.5683768 3737
1957.879171 350.5683768 3737
1979.125348 352.6321992 3759
1988.845342 352.6321992 3759
2010.793856 354.7898317 3782
2020.573324 354.7898317 3782
2055.584569 359.1989068 3829
2078.43194 361.4503494 3853
2088.394999 361.4503494 3853
2111.428547 363.701792 3877
2134.586213 365.9532346 3901
2144.67339 365.9532346 3901
2154.760567 365.9532346 3901
2192.595088 370.6437401 3951
2202.811555 370.6437401 3951
2227.030983 372.9889928 3976
2237.312095 372.9889928 3976
2276.988289 377.8671184 4028
2317.501281 382.8390542 4081
2328.053901 382.8390542 4081
2354.078801 385.3719272 4108
2380.243334 387.9048001 4135
2390.935587 387.9048001 4135
2434.152908 393.1581662 4191
2444.989965 393.1581662 4191
2455.827023 393.1581662 4191
2483.143821 395.7848492 4219
2494.05328 395.7848492 4219
2522.181018 398.5053424 4248
2533.165466 398.5053424 4248
1926.96695 380.8602069 3951
1912.668314 376.0404118 3901
1922.755491 376.0404118 3901
1920.951301 373.7269102 3877
1930.976419 373.7269102 3877
1916.970567 369.0999069 3829
1926.871567 369.0999069 3829
1936.772567 369.0999069 3829
1934.471905 366.7864053 3805
1944.310846 366.7864053 3805
1954.149787 366.7864053 3805
1940.245369 362.3521938 3759
1949.965364 362.3521938 3759
1948.216064 360.231484 3737
1957.879171 360.231484 3737
1979.125348 362.3521938 3759
1988.845342 362.3521938 3759
2010.793856 364.5692996 3782
2020.573324 364.5692996 3782
2055.584569 369.0999069 3829
2078.43194 371.4134086 3853
2088.394999 371.4134086 3853
2111.428547 373.7269102 3877
2134.586213 376.0404118 3901
2144.67339 376.0404118 3901
2154.760567 376.0404118 3901
2192.595088 380.8602069 3951
2202.811555 380.8602069 3951
2227.030983 383.2701045 3976
2237.312095 383.2701045 3976
2276.988289 388.2826913 4028
2317.501281 393.3916741 4081
2328.053901 393.3916741 4081
2354.078801 395.9943635 4108
2380.243334 398.5970528 4135
2390.935587 398.5970528 4135
2434.152908 403.9952233 4191
2444.989965 403.9952233 4191
2455.827023 403.9952233 4191
2483.143821 406.6943085 4219
2494.05328 406.6943085 4219
2522.181018 409.4897897 4248
2533.165466 409.4897897 4248
1926.96695 391.0766738 3951
1912.668314 386.1275891 3901
1922.755491 386.1275891 3901
1909.059934 381.3764678 3853
1919.022993 381.3764678 3853
1916.970567 379.0009071 3829
1914.794022 376.6253464 3805
1924.632964 376.6253464 3805
1922.778645 374.3487675 3782
1932.558113 374.3487675 3782
1930.525374 372.0721885 3759
1928.889849 369.8945912 3737
1938.552957 369.8945912 3737
1924.756143 365.440415 3692
1934.30289 365.440415 3692
1943.849636 365.440415 3692
1953.396383 365.440415 3692
1974.639974 367.6180123 3714
1984.243608 367.6180123 3714
2018.005326 372.0721885 3759
2052.539198 376.6253464 3805
2062.378139 376.6253464 3805
2072.21708 376.6253464 3805
2095.188569 379.0009071 3829
2105.08957 379.0009071 3829
2128.247236 381.3764678 3853
2151.52902 383.7520284 3877
2161.554138 383.7520284 3877
2185.022099 386.1275891 3901
2195.109276 386.1275891 3901
2247.593207 393.5512161 3976
2272.63909 396.1247402 4002
2282.987432 396.1247402 4002
2323.134241 401.2717883 4054
2364.701237 406.6167998 4108
2375.323674 406.6167998 4108
2401.62784 409.2893055 4135
2412.320092 409.2893055 4135
2439.419684 412.060793 4163
2483.143821 417.6037678 4219
2494.05328 417.6037678 4219
2522.181018 420.474237 4248
2533.165466 420.474237 4248
1926.96695 401.2931406 3951
1912.668314 396.2147663 3901
1922.755491 396.2147663 3901
1909.059934 391.3395269 3853
1919.022993 391.3395269 3853
1916.970567 388.9019073 3829
1914.794022 386.4642876 3805
1924.632964 386.4642876 3805
1911.085385 381.7921832 3759
1920.80538 381.7921832 3759
1919.226742 379.5576985 3737
1905.66265 374.9871615 3692
1915.209397 374.9871615 3692
1913.286849 372.7526768 3670
1911.774443 370.6197596 3649
1921.210001 370.6197596 3649
1930.645558 370.6197596 3649
1951.246285 372.7526768 3670
1960.736144 372.7526768 3670
1982.036623 374.9871615 3692
2015.857814 379.5576985 3737
2025.520922 379.5576985 3737
2047.16531 381.7921832 3759
2056.885305 381.7921832 3759
2066.6053 381.7921832 3759
2089.029599 384.1282354 3782
2098.809067 384.1282354 3782
2121.411786 386.4642876 3805
2158.136413 391.3395269 3853
2168.099472 391.3395269 3853
2191.629493 393.7771466 3877
2243.677423 401.2931406 3951
2253.893889 401.2931406 3951
2293.335775 406.4730825 4002
2333.617044 411.7545918 4054
2344.099848 411.7545918 4054
2385.94611 417.2392361 4108
2396.568546 417.2392361 4108
2423.012345 419.9815582 4135
2466.66408 425.6693375 4191
2477.501137 425.6693375 4191
2504.962739 428.5132271 4219
2533.165466 431.4586843 4248
1926.96695 411.5096075 3951
1912.668314 406.3019435 3901
1922.755491 406.3019435 3901
1909.059934 401.3025861 3853
1919.022993 401.3025861 3853
1904.955081 396.3032287 3805
1903.219709 393.9077033 3782
1912.999177 393.9077033 3782
1911.085385 391.5121778 3759
1920.80538 391.5121778 3759
1919.226742 389.2208057 3737
1905.66265 384.5339081 3692
1915.209397 384.5339081 3692
1913.286849 382.242536 3670
1911.774443 380.0553171 3649
1921.210001 380.0553171 3649
1930.645558 380.0553171 3649
1951.246285 382.242536 3670
1960.736144 382.242536 3670
1982.036623 384.5339081 3692
2015.857814 389.2208057 3737
2025.520922 389.2208057 3737
2047.16531 391.5121778 3759
2056.885305 391.5121778 3759
2066.6053 391.5121778 3759
2089.029599 393.9077033 3782
2098.809067 393.9077033 3782
2121.411786 396.3032287 3805
2158.136413 401.3025861 3853
2168.099472 401.3025861 3853
2191.629493 403.8022648 3877
2243.677423 411.5096075 3951
2253.893889 411.5096075 3951
2293.335775 416.8214248 4002
2333.617044 422.2373953 4054
2344.099848 422.2373953 4054
2385.94611 427.8616724 4108
2396.568546 427.8616724 4108
2423.012345 430.673811 4135
2466.66408 436.5063946 4191
2477.501137 436.5063946 4191
2504.962739 439.4226864 4219
2551.055052 445.5677299 4278
1926.96695 421.7260744 3951
1912.668314 416.3891208 3901
1922.755491 416.3891208 3901
1909.059934 411.2656453 3853
1919.022993 411.2656453 3853
1893.440241 403.6871712 3782
1891.645396 401.2321725 3759
1901.36539 401.2321725 3759
1899.900528 398.8839129 3737
1909.563635 398.8839129 3737
1907.414536 396.4289143 3714
1894.307131 391.7323951 3670
1903.79699 391.7323951 3670
1890.869591 387.142615 3627
1900.248262 387.142615 3627
1909.626932 387.142615 3627
1919.005602 387.142615 3627
1928.384272 387.142615 3627
1937.762942 387.142615 3627
1958.952231 389.4908746 3649
1991.583369 394.0806547 3692
2001.130116 394.0806547 3692
2022.658144 396.4289143 3714
2032.261778 396.4289143 3714
2041.865412 396.4289143 3714
2064.173351 398.8839129 3737
2073.836458 398.8839129 3737
2095.765284 401.2321725 3759
2118.368003 403.6871712 3782
2128.147471 403.6871712 3782
2164.495571 408.7039076 3829
2201.654611 413.827383 3877
2211.679729 413.827383 3877
2264.110356 421.7260744 3951
2303.684117 427.1697671 4002
2314.032459 427.1697671 4002
2354.582651 432.7201988 4054
2365.065455 432.7201988 4054
2407.190983 438.4841087 4108
2450.184339 444.3547577 4163
2460.948994 444.3547577 4163
2504.962739 450.3321457 4219
2533.165466 453.4275788 4248
1926.96695 431.9425412 3951
1912.668314 426.476298 3901
1922.755491 426.476298 3901
1909.059934 421.2287045 3853
1919.022993 421.2287045 3853
1893.440241 413.4666391 3782
1891.645396 410.9521672 3759
1901.36539 410.9521672 3759
1899.900528 408.5470201 3737
1909.563635 408.5470201 3737
1907.414536 406.0325483 3714
1894.307131 401.2222542 3670
1903.79699 401.2222542 3670
1890.869591 396.521285 3627
1900.248262 396.521285 3627
1909.626932 396.521285 3627
1919.005602 396.521285 3627
1928.384272 396.521285 3627
1937.762942 396.521285 3627
1958.952231 398.926432 3649
1991.583369 403.6274012 3692
2001.130116 403.6274012 3692
2022.658144 406.0325483 3714
2032.261778 406.0325483 3714
2041.865412 406.0325483 3714
2064.173351 408.5470201 3737
2073.836458 408.5470201 3737
2095.765284 410.9521672 3759
2118.368003 413.4666391 3782
2128.147471 413.4666391 3782
2164.495571 418.6049077 3829
2201.654611 423.8525012 3877
2211.679729 423.8525012 3877
2264.110356 431.9425412 3951
2303.684117 437.5181093 4002
2314.032459 437.5181093 4002
2354.582651 443.2030023 4054
2365.065455 443.2030023 4054
2407.190983 449.106545 4108
2450.184339 455.1194126 4163
2460.948994 455.1194126 4163
2504.962739 461.241605 4219
2533.165466 464.4120261 4248
1926.96695 442.1590081 3951
1912.668314 436.5634752 3901
1922.755491 436.5634752 3901
1897.168566 428.5059079 3829
1907.069566 428.5059079 3829
1893.440241 423.246107 3782
1880.574313 418.2101274 3737
1890.23742 418.2101274 3737
1877.02241 413.1741478 3692
1886.569157 413.1741478 3692
1884.817271 410.7121133 3670
1883.467771 408.3619895 3649
1892.903328 408.3619895 3649
1879.921629 403.5498312 3606
1889.245997 403.5498312 3606
1898.570365 403.5498312 3606
1896.783866 401.1997074 3585
1906.053933 401.1997074 3585
1915.323999 401.1997074 3585
1947.141612 405.899955 3627
1979.715863 410.7121133 3670
1989.205722 410.7121133 3670
1998.695581 410.7121133 3670
2008.18544 410.7121133 3670
2017.675299 410.7121133 3670
2027.165158 410.7121133 3670
2036.655017 410.7121133 3670
2058.410595 413.1741478 3692
2080.279948 415.6361823 3714
2089.883582 415.6361823 3714
2124.925268 420.6721618 3759
2160.767551 425.8200521 3805
2170.606492 425.8200521 3805
2221.704847 433.8776194 3877
2274.326823 442.1590081 3951
2284.54329 442.1590081 3951
2324.380802 447.8664516 4002
2334.729144 447.8664516 4002
2391.36962 456.7073936 4081
2433.704598 462.7505691 4135
2444.396851 462.7505691 4135
2488.338194 469.0175659 4191
1926.96695 452.375475 3951
1912.668314 446.6506524 3901
1910.926183 443.9027376 3877
1897.168566 438.406908 3829
1907.069566 438.406908 3829
1881.925401 430.3921565 3759
1869 425.2398163 3714
1878.603634 425.2398163 3714
1877.02241 422.7208943 3692
1886.569157 422.7208943 3692
1874.032214 417.797547 3649
1872.112251 415.2786251 3627
1881.490921 415.2786251 3627
1868.973666 410.4697742 3585
1867.765385 408.1798452 3565
1876.983736 408.1798452 3565
1875.091219 405.7754197 3544
1884.255268 405.7754197 3544
1893.419318 405.7754197 3544
1924.594066 410.4697742 3585
1945.192207 412.8741996 3606
1954.516576 412.8741996 3606
1963.840944 412.8741996 3606
1973.165312 412.8741996 3606
1970.9444 410.4697742 3585
1980.214467 410.4697742 3585
1989.484533 410.4697742 3585
2022.170972 415.2786251 3627
2043.872248 417.797547 3649
2053.307806 417.797547 3649
2099.487216 425.2398163 3714
2134.645262 430.3921565 3759
2144.365257 430.3921565 3759
2194.198571 438.406908 3829
2204.099571 438.406908 3829
2255.63234 446.6506524 3901
2309.279877 455.2378862 3976
2319.560988 455.2378862 3976
2375.548258 464.1686093 4054
2433.704598 473.4428218 4135
2444.396851 473.4428218 4135
2488.338194 479.854623 4191
1926.96695 462.5919418 3951
1937.183417 462.5919418 3951
1910.926183 453.9278558 3877
1909.059934 451.117882 3853
1919.022993 451.117882 3853
1881.925401 440.1121512 3759
1869 434.8434502 3714
1878.603634 434.8434502 3714
1877.02241 432.2676409 3692
1886.569157 432.2676409 3692
1874.032214 427.2331045 3649
1872.112251 424.6572951 3627
1881.490921 424.6572951 3627
1868.973666 419.7398409 3585
1867.765385 417.3981961 3565
1876.983736 417.3981961 3565
1875.091219 414.939469 3544
1884.255268 414.939469 3544
1893.419318 414.939469 3544
1924.594066 419.7398409 3585
1945.192207 422.198568 3606
1954.516576 422.198568 3606
1963.840944 422.198568 3606
1973.165312 422.198568 3606
1970.9444 419.7398409 3585
1980.214467 419.7398409 3585
1989.484533 419.7398409 3585
2022.170972 424.6572951 3627
2043.872248 427.2331045 3649
2053.307806 427.2331045 3649
2099.487216 434.8434502 3714
2134.645262 440.1121512 3759
2144.365257 440.1121512 3759
2194.198571 448.3079082 3829
2204.099571 448.3079082 3829
2255.63234 456.7378297 3901
2309.279877 465.5189979 3976
2319.560988 465.5189979 3976
2375.548258 474.6514128 4054
2433.704598 484.1350745 4135
2444.396851 484.1350745 4135
2488.338194 490.6916801 4191
1926.96695 472.8084087 3951
1912.668314 466.8250069 3901
1910.926183 463.9529741 3877
1909.059934 461.0809412 3853
1919.022993 461.0809412 3853
1881.925401 449.8321459 3759
1869 444.4470842 3714
1878.603634 444.4470842 3714
1877.02241 441.8143875 3692
1886.569157 441.8143875 3692
1874.032214 436.6686619 3649
1861.272892 431.5229364 3606
1870.59726 431.5229364 3606
1858.547034 426.6165469 3565
1867.765385 426.6165469 3565
1865.92717 424.1035182 3544
1875.091219 424.1035182 3544
1884.255268 424.1035182 3544
1893.419318 424.1035182 3544
1902.583367 424.1035182 3544
1923.075491 426.6165469 3565
1932.293841 426.6165469 3565
1941.512192 426.6165469 3565
1950.730543 426.6165469 3565
1959.948894 426.6165469 3565
1969.167245 426.6165469 3565
1978.385596 426.6165469 3565
2010.462786 431.5229364 3606
2031.549642 434.0359652 3627
2040.928312 434.0359652 3627
2074.614454 439.1816907 3670
2122.151994 447.1994491 3737
2131.815101 447.1994491 3737
2180.445433 455.3368755 3805
2190.284374 455.3368755 3805
2241.755084 463.9529741 3877
2309.279877 475.8001096 3976
2319.560988 475.8001096 3976
2375.548258 485.1342164 4054
2433.704598 494.8273272 4135
2444.396851 494.8273272 4135
2488.338194 501.5287372 4191
1926.96695 483.0248755 3951
1912.668314 476.9121841 3901
1910.926183 473.9780923 3877
1897.168566 468.1099085 3829
1907.069566 468.1099085 3829
1870.911206 456.8625563 3737
1857.928917 451.361134 3692
1867.475664 451.361134 3692
1865.837553 448.6715498 3670
1875.327412 448.6715498 3670
1862.733581 443.4146352 3627
1840.110333 435.8348978 3565
1849.328683 435.8348978 3565
1847.599071 433.2675674 3544
1856.763121 433.2675674 3544
1855.397107 430.8224909 3524
1853.927661 428.3774143 3504
1862.988279 428.3774143 3504
1872.048896 428.3774143 3504
1881.109514 428.3774143 3504
1900.958774 430.8224909 3524
1910.071107 430.8224909 3524
1930.075515 433.2675674 3544
1939.239564 433.2675674 3544
1948.403613 433.2675674 3544
1957.567662 433.2675674 3544
1966.731712 433.2675674 3544
1987.603947 435.8348978 3565
2019.787154 440.8473048 3606
2029.111523 440.8473048 3606
2074.614454 448.6715498 3670
2109.09085 454.0507182 3714
2118.694484 454.0507182 3714
2180.445433 465.1758166 3805
2190.284374 465.1758166 3805
2241.755084 473.9780923 3877
2294.759757 483.0248755 3951
2304.976224 483.0248755 3951
2375.548258 495.6170199 4054
2433.704598 505.51958 4135
2444.396851 505.51958 4135
2504.962739 515.7889015 4219
1926.96695 493.2413424 3951
1937.183417 493.2413424 3951
1910.926183 484.0032105 3877
1897.168566 478.0109087 3829
1907.069566 478.0109087 3829
1870.911206 466.5256635 3737
1857.928917 460.9078806 3692
1867.475664 460.9078806 3692
1865.837553 458.1614089 3670
1875.327412 458.1614089 3670
1862.733581 452.7933052 3627
1840.110333 445.0532487 3565
1849.328683 445.0532487 3565
1847.599071 442.4316167 3544
1856.763121 442.4316167 3544
1855.397107 439.9348243 3524
1853.927661 437.4380318 3504
1862.988279 437.4380318 3504
1872.048896 437.4380318 3504
1881.109514 437.4380318 3504
1900.958774 439.9348243 3524
1910.071107 439.9348243 3524
1930.075515 442.4316167 3544
1939.239564 442.4316167 3544
1948.403613 442.4316167 3544
1957.567662 442.4316167 3544
1966.731712 442.4316167 3544
1987.603947 445.0532487 3565
2019.787154 450.1716732 3606
2029.111523 450.1716732 3606
2074.614454 458.1614089 3670
2109.09085 463.6543522 3714
2118.694484 463.6543522 3714
2180.445433 475.0147578 3805
2190.284374 475.0147578 3805
2241.755084 484.0032105 3877
2294.759757 493.2413424 3951
2304.976224 493.2413424 3951
2375.548258 506.0998234 4054
2433.704598 516.2118327 4135
2444.396851 516.2118327 4135
2522.181018 530.3187098 4248
1914.774043 500.2721739 3926
1924.925865 500.2721739 3926
1910.926183 494.0283287 3877
1885.277199 484.8536989 3805
1895.11614 484.8536989 3805
1859.396366 473.2579862 3714
1846.857835 467.651268 3670
1856.347694 467.651268 3670
1843.976241 462.1719753 3627
1853.354911 462.1719753 3627
1841.163465 456.8201079 3585
1818.947773 449.0471577 3524
1828.060107 449.0471577 3524
1826.745809 446.4986494 3504
1835.806426 446.4986494 3504
1834.863484 444.0775665 3485
1833.293193 441.5290582 3465
1842.252964 441.5290582 3465
1851.212736 441.5290582 3465
1860.172507 441.5290582 3465
1879.920921 444.0775665 3485
1888.932409 444.0775665 3485
1897.943896 444.0775665 3485
1906.955384 444.0775665 3485
1915.966871 444.0775665 3485
1935.473219 446.4986494 3504
1944.533837 446.4986494 3504
1975.895761 451.5956659 3544
2008.024667 456.8201079 3585
2017.294734 456.8201079 3585
2062.743363 464.9753344 3649
2096.597581 470.4546271 3692
2106.144328 470.4546271 3692
2167.265342 481.9229144 3782
2177.04481 481.9229144 3782
2241.755084 494.0283287 3877
2294.759757 503.4578093 3951
2304.976224 503.4578093 3951
2375.548258 516.5826269 4054
2433.704598 526.9040854 4135
2444.396851 526.9040854 4135
2504.962739 537.6078201 4219
1914.774043 510.423996 3926
1924.925865 510.423996 3926
1910.926183 504.0534469 3877
1885.277199 494.69264 3805
1895.11614 494.69264 3805
1859.396366 482.8616202 3714
1846.857835 477.1411272 3670
1856.347694 477.1411272 3670
1843.976241 471.5506453 3627
1853.354911 471.5506453 3627
1841.163465 466.0901746 3585
1818.947773 458.159491 3524
1828.060107 458.159491 3524
1826.745809 455.5592669 3504
1835.806426 455.5592669 3504
1834.863484 453.089054 3485
1833.293193 450.4888299 3465
1842.252964 450.4888299 3465
1851.212736 450.4888299 3465
1860.172507 450.4888299 3465
1879.920921 453.089054 3485
1888.932409 453.089054 3485
1897.943896 453.089054 3485
1906.955384 453.089054 3485
1915.966871 453.089054 3485
1935.473219 455.5592669 3504
1944.533837 455.5592669 3504
1975.895761 460.7597152 3544
2008.024667 466.0901746 3585
2017.294734 466.0901746 3585
2062.743363 474.4108918 3649
2096.597581 480.0013737 3692
2106.144328 480.0013737 3692
2167.265342 491.7023823 3782
2177.04481 491.7023823 3782
2241.755084 504.0534469 3877
2294.759757 513.6742761 3951
2304.976224 513.6742761 3951
2375.548258 527.0654304 4054
2433.704598 537.5963381 4135
2444.396851 537.5963381 4135
2504.962739 548.5172794 4219
1914.774043 520.575818 3926
1924.925865 520.575818 3926
1899.096875 510.8962371 3853
1873.881305 501.4818502 3782
1883.660773 501.4818502 3782
1848.382171 489.5481203 3692
1836.289984 483.8464493 3649
1845.725541 483.8464493 3649
1822.623332 475.3602414 3585
1831.893399 475.3602414 3585
1820.106924 469.9237644 3544
1798.817534 462.1005415 3485
1807.829022 462.1005415 3485
1796.508578 456.9292585 3446
1805.41922 456.9292585 3446
1814.329861 456.9292585 3446
1823.240503 456.9292585 3446
1832.151144 456.9292585 3446
1841.061786 456.9292585 3446
1849.972427 456.9292585 3446
1869.132279 459.4486015 3465
1878.092051 459.4486015 3465
1887.051822 459.4486015 3465
1896.011594 459.4486015 3465
1904.971366 459.4486015 3465
1924.978359 462.1005415 3485
1933.989846 462.1005415 3485
1964.745108 467.2718244 3524
1996.822298 472.7083014 3565
2006.040649 472.7083014 3565
2038.435891 478.1447783 3606
2096.597581 489.5481203 3692
2106.144328 489.5481203 3692
2167.265342 501.4818502 3782
2177.04481 501.4818502 3782
2241.755084 514.0785651 3877
2294.759757 523.890743 3951
2304.976224 523.890743 3951
2375.548258 537.5482339 4054
2433.704598 548.2885908 4135
2444.396851 548.2885908 4135
1902.581137 527.3480703 3901
1912.668314 527.3480703 3901
1887.267566 517.6149093 3829
1862.485412 508.1521139 3759
1872.205406 508.1521139 3759
1837.367976 496.1208454 3670
1825.218901 490.3079854 3627
1834.597571 490.3079854 3627
1812.45528 481.9266523 3565
1821.673631 481.9266523 3565
1799.563956 473.680502 3504
1778.687295 465.8399001 3446
1787.597936 465.8399001 3446
1786.603278 463.271427 3427
1795.46479 463.271427 3427
1804.326301 463.271427 3427
1803.135123 460.702954 3408
1811.947504 460.702954 3408
1820.759886 460.702954 3408
1829.572267 460.702954 3408
1848.633859 463.271427 3427
1857.49537 463.271427 3427
1866.356882 463.271427 3427
1875.218393 463.271427 3427
1894.525635 465.8399001 3446
1924.978359 471.1120289 3485
1933.989846 471.1120289 3485
1953.594454 473.680502 3504
1985.05981 479.0878137 3544
1994.223859 479.0878137 3544
2038.435891 487.4691467 3606
2096.597581 499.0948668 3692
2106.144328 499.0948668 3692
2167.265342 511.2613181 3782
2177.04481 511.2613181 3782
2241.755084 524.1036833 3877
2294.759757 534.1072099 3951
2304.976224 534.1072099 3951
2375.548258 548.0310374 4054
2433.704598 558.9808435 4135
2444.396851 558.9808435 4135
1902.581137 537.4352475 3901
1912.668314 537.4352475 3901
1887.267566 527.5159094 3829
1862.485412 517.8721085 3759
1872.205406 517.8721085 3759
1837.367976 505.6107045 3670
1825.218901 499.6866554 3627
1834.597571 499.6866554 3627
1812.45528 491.1450032 3565
1821.673631 491.1450032 3565
1799.563956 482.7411195 3504
1778.687295 474.7505416 3446
1787.597936 474.7505416 3446
1786.603278 472.1329385 3427
1795.46479 472.1329385 3427
1804.326301 472.1329385 3427
1803.135123 469.5153354 3408
1811.947504 469.5153354 3408
1820.759886 469.5153354 3408
1829.572267 469.5153354 3408
1848.633859 472.1329385 3427
1857.49537 472.1329385 3427
1866.356882 472.1329385 3427
1875.218393 472.1329385 3427
1894.525635 474.7505416 3446
1924.978359 480.1235164 3485
1933.989846 480.1235164 3485
1953.594454 482.7411195 3504
1985.05981 488.2518629 3544
1994.223859 488.2518629 3544
2038.435891 496.7935151 3606
2096.597581 508.6416134 3692
2106.144328 508.6416134 3692
2167.265342 521.040786 3782
2177.04481 521.040786 3782
2241.755084 534.1288015 3877
2294.759757 544.3236767 3951
2304.976224 544.3236767 3951
2375.548258 558.5138409 4054
2433.704598 569.6730962 4135
2444.396851 569.6730962 4135
1890.875946 544.1539197 3877
1900.901065 544.1539197 3877
1875.438258 534.0484045 3805
1851.584991 524.5043069 3737
1861.248099 524.5043069 3737
1826.854426 512.1531217 3649
1825.218901 509.0653254 3627
1813.353265 503.1704416 3585
1791.610773 494.6088246 3524
1800.723107 494.6088246 3524
1789.806047 489.1350039 3485
1768.880255 480.99445 3427
1777.741767 480.99445 3427
1766.792679 475.6609837 3389
1775.55593 475.6609837 3389
1784.319181 475.6609837 3389
1793.082433 475.6609837 3389
1801.845684 475.6609837 3389
1810.608936 475.6609837 3389
1829.572267 478.3277169 3408
1838.384648 478.3277169 3408
1847.19703 478.3277169 3408
1866.356882 480.99445 3427
1875.218393 480.99445 3427
1894.525635 483.6611832 3446
1913.931137 486.3279164 3465
1922.890909 486.3279164 3465
1953.594454 491.8017371 3504
1985.05981 497.4159121 3544
1994.223859 497.4159121 3544
2038.435891 506.1178835 3606
2096.597581 518.1883599 3692
2106.144328 518.1883599 3692
2167.265342 530.8202539 3782
2177.04481 530.8202539 3782
2241.755084 544.1539197 3877
2294.759757 554.5401436 3951
2304.976224 554.5401436 3951
2375.548258 568.9966444 4054
2433.704598 580.365349 4135
2444.396851 580.365349 4135
1890.875946 554.1790379 3877
1900.901065 554.1790379 3877
1875.438258 543.8873457 3805
1851.584991 534.1674141 3737
1861.248099 534.1674141 3737
1815.840231 518.4439955 3627
1825.218901 518.4439955 3627
1813.353265 512.4405083 3585
1791.610773 503.721158 3524
1800.723107 503.721158 3524
1789.806047 498.1464914 3485
1768.880255 489.8559615 3427
1777.741767 489.8559615 3427
1766.792679 484.4242351 3389
1775.55593 484.4242351 3389
1784.319181 484.4242351 3389
1793.082433 484.4242351 3389
1801.845684 484.4242351 3389
1810.608936 484.4242351 3389
1829.572267 487.1400983 3408
1838.384648 487.1400983 3408
1847.19703 487.1400983 3408
1876.704352 492.5718248 3446
1885.614994 492.5718248 3446
1894.525635 492.5718248 3446
1913.931137 495.287688 3465
1922.890909 495.287688 3465
1953.594454 500.8623546 3504
1996.822298 509.5817049 3565
2006.040649 509.5817049 3565
2038.435891 515.4422519 3606
2096.597581 527.7351065 3692
2106.144328 527.7351065 3692
2167.265342 540.5997218 3782
2177.04481 540.5997218 3782
2255.63234 557.609602 3901
2309.279877 568.3301147 3976
2319.560988 568.3301147 3976
2375.548258 579.4794479 4054
2433.704598 591.0576017 4135
2444.396851 591.0576017 4135
1890.875946 564.2041561 3877
1900.901065 564.2041561 3877
1875.438258 553.7262868 3805
1851.584991 543.8305214 3737
1861.248099 543.8305214 3737
1815.840231 527.8226655 3627
1825.218901 527.8226655 3627
1813.353265 521.7105751 3585
1791.610773 512.8334914 3524
1800.723107 512.8334914 3524
1789.806047 507.1579788 3485
1768.880255 498.717473 3427
1777.741767 498.717473 3427
1776.697978 495.9524797 3408
1785.51036 495.9524797 3408
1794.322741 495.9524797 3408
1803.135123 495.9524797 3408
1811.947504 495.9524797 3408
1820.759886 495.9524797 3408
1829.572267 495.9524797 3408
1848.633859 498.717473 3427
1857.49537 498.717473 3427
1876.704352 501.4824663 3446
1885.614994 501.4824663 3446
1904.971366 504.2474596 3465
1935.473219 509.9229721 3504
1944.533837 509.9229721 3504
1964.745108 512.8334914 3524
2008.024667 521.7105751 3585
2017.294734 521.7105751 3585
2062.743363 531.0242367 3649
2122.151994 543.8305214 3737
2131.815101 543.8305214 3737
2194.198571 557.2189099 3829
2204.099571 557.2189099 3829
2270.087815 571.3349283 3926
2324.380802 582.3949014 4002
2334.729144 582.3949014 4002
2391.36962 593.8914524 4081
2450.184339 605.8245813 4163
2460.948994 605.8245813 4163
1890.875946 574.2292743 3877
1900.901065 574.2292743 3877
1875.438258 563.5652279 3805
1851.584991 553.4936286 3737
1861.248099 553.4936286 3737
1815.840231 537.2013355 3627
1825.218901 537.2013355 3627
1813.353265 530.9806418 3585
1791.610773 521.9458248 3524
1800.723107 521.9458248 3524
1789.806047 516.1694663 3485
1768.880255 507.5789845 3427
1777.741767 507.5789845 3427
1776.697978 504.7648612 3408
1785.51036 504.7648612 3408
1794.322741 504.7648612 3408
1803.135123 504.7648612 3408
1811.947504 504.7648612 3408
1820.759886 504.7648612 3408
1829.572267 504.7648612 3408
1848.633859 507.5789845 3427
1857.49537 507.5789845 3427
1876.704352 510.3931079 3446
1885.614994 510.3931079 3446
1904.971366 513.2072312 3465
1935.473219 518.9835897 3504
1944.533837 518.9835897 3504
1964.745108 521.9458248 3524
2008.024667 530.9806418 3585
2017.294734 530.9806418 3585
2062.743363 540.4597942 3649
2122.151994 553.4936286 3737
2131.815101 553.4936286 3737
2194.198571 567.1199101 3829
2204.099571 567.1199101 3829
2270.087815 581.4867503 3926
2324.380802 592.7432437 4002
2334.729144 592.7432437 4002
2391.36962 604.4440723 4081
2450.184339 616.5892362 4163
2460.948994 616.5892362 4163
1890.875946 584.2543925 3877
1900.901065 584.2543925 3877
1875.438258 573.4041691 3805
1851.584991 563.1567358 3737
1861.248099 563.1567358 3737
1826.854426 549.8953516 3649
1836.289984 549.8953516 3649
1813.353265 540.2507086 3585
1801.778825 534.0721091 3544
1810.942874 534.0721091 3544
1789.806047 525.1809538 3485
1768.880255 516.440496 3427
1777.741767 516.440496 3427
1786.603278 516.440496 3427
1795.46479 516.440496 3427
1804.326301 516.440496 3427
1813.187813 516.440496 3427
1832.151144 519.3037494 3446
1841.061786 519.3037494 3446
1849.972427 519.3037494 3446
1858.883069 519.3037494 3446
1867.79371 519.3037494 3446
1897.943896 525.1809538 3485
1906.955384 525.1809538 3485
1937.408107 531.0581582 3524
1957.567662 534.0721091 3544
1966.731712 534.0721091 3544
2010.462786 543.4153571 3606
2055.634736 553.0600001 3670
2065.124595 553.0600001 3670
2112.488887 563.1567358 3737
2160.767551 573.4041691 3805
2170.606492 573.4041691 3805
2221.704847 584.2543925 3877
2231.729965 584.2543925 3877
2298.998765 599.1734497 3976
2354.582651 610.9278585 4054
2365.065455 610.9278585 4054
2407.190983 619.065526 4108
2450.184339 627.3538912 4163
2460.948994 627.3538912 4163
1890.875946 594.2795107 3877
1900.901065 594.2795107 3877
1875.438258 583.2431102 3805
1851.584991 572.8198431 3737
1861.248099 572.8198431 3737
1826.854426 559.3309091 3649
1836.289984 559.3309091 3649
1813.353265 549.5207753 3585
1801.778825 543.2361584 3544
1810.942874 543.2361584 3544
1789.806047 534.1924413 3485
1768.880255 525.3020075 3427
1777.741767 525.3020075 3427
1786.603278 525.3020075 3427
1795.46479 525.3020075 3427
1804.326301 525.3020075 3427
1813.187813 525.3020075 3427
1832.151144 528.214391 3446
1841.061786 528.214391 3446
1849.972427 528.214391 3446
1858.883069 528.214391 3446
1867.79371 528.214391 3446
1897.943896 534.1924413 3485
1906.955384 534.1924413 3485
1937.408107 540.1704916 3524
1957.567662 543.2361584 3544
1966.731712 543.2361584 3544
2010.462786 552.7397255 3606
2055.634736 562.5498592 3670
2065.124595 562.5498592 3670
2112.488887 572.8198431 3737
2160.767551 583.2431102 3805
2170.606492 583.2431102 3805
2221.704847 594.2795107 3877
2231.729965 594.2795107 3877
2298.998765 609.4545614 3976
2354.582651 621.410662 4054
2365.065455 621.410662 4054
2407.190983 629.6879623 4108
2450.184339 638.1185461 4163
2460.948994 638.1185461 4163
1890.875946 604.3046289 3877
1900.901065 604.3046289 3877
1887.267566 596.8229105 3829
1862.485412 585.9120712 3759
1872.205406 585.9120712 3759
1848.382171 575.4688393 3692
1846.857835 572.0397184 3670
1834.597571 565.3373456 3627
1822.623332 558.7908421 3585
1831.893399 558.7908421 3585
1809.83544 549.2828249 3524
1798.817534 543.2039288 3485
1807.829022 543.2039288 3485
1806.413878 540.0865461 3465
1815.373649 540.0865461 3465
1824.333421 540.0865461 3465
1833.293193 540.0865461 3465
1852.886459 543.2039288 3485
1861.897946 543.2039288 3485
1870.909434 543.2039288 3485
1900.958774 549.2828249 3524
1910.071107 549.2828249 3524
1930.075515 552.4002076 3544
1939.239564 552.4002076 3544
1970.9444 558.7908421 3585
2003.413632 565.3373456 3627
2012.792302 565.3373456 3627
2046.144877 572.0397184 3670
2093.162672 582.4829503 3737
2102.825779 582.4829503 3737
2150.92861 593.0820513 3805
2188.025591 600.5637697 3853
2197.98865 600.5637697 3853
2249.784171 611.9422164 3926
2259.935993 611.9422164 3926
2314.032459 623.7882705 4002
2370.264381 636.1019321 4081
2380.817 636.1019321 4081
2407.190983 640.3103987 4108
2433.704598 644.5188652 4135
1902.581137 618.1326653 3901
1912.668314 618.1326653 3901
1899.096875 610.5268289 3853
1873.881305 599.2765292 3782
1883.660773 599.2765292 3782
1859.396366 588.5015942 3714
1846.857835 581.5295775 3670
1856.347694 581.5295775 3670
1843.976241 574.7160157 3627
1853.354911 574.7160157 3627
1841.163465 568.0609088 3585
1818.947773 558.3951583 3524
1828.060107 558.3951583 3524
1837.17244 558.3951583 3524
1846.284774 558.3951583 3524
1855.397107 558.3951583 3524
1864.50944 558.3951583 3524
1873.621774 558.3951583 3524
1882.734107 558.3951583 3524
1902.583367 561.5642568 3544
1923.075491 564.8918103 3565
1932.293841 564.8918103 3565
1963.840944 571.3884622 3606
1973.165312 571.3884622 3606
1994.034962 574.7160157 3627
2027.165158 581.5295775 3670
2036.655017 581.5295775 3670
2083.499565 592.1460575 3737
2131.250727 602.9209925 3805
2141.089668 602.9209925 3805
2178.062532 610.5268289 3853
2215.283631 618.1326653 3901
2225.370808 618.1326653 3901
2278.436542 630.0167848 3976
2333.617044 642.376269 4054
2344.099848 642.376269 4054
2370.264381 646.654552 4081
2380.817 646.654552 4081
2407.190983 650.932835 4108
2433.704598 655.211118 4135
1902.581137 628.2198426 3901
1912.668314 628.2198426 3901
1899.096875 620.4898881 3853
1873.881305 609.0559971 3782
1883.660773 609.0559971 3782
1859.396366 598.1052282 3714
1846.857835 591.0194366 3670
1856.347694 591.0194366 3670
1843.976241 584.0946857 3627
1853.354911 584.0946857 3627
1841.163465 577.3309755 3585
1818.947773 567.5074917 3524
1828.060107 567.5074917 3524
1837.17244 567.5074917 3524
1846.284774 567.5074917 3524
1855.397107 567.5074917 3524
1864.50944 567.5074917 3524
1873.621774 567.5074917 3524
1882.734107 567.5074917 3524
1902.583367 570.7283061 3544
1923.075491 574.1101612 3565
1932.293841 574.1101612 3565
1963.840944 580.7128306 3606
1973.165312 580.7128306 3606
1994.034962 584.0946857 3627
2027.165158 591.0194366 3670
2036.655017 591.0194366 3670
2083.499565 601.8091647 3737
2131.250727 612.7599336 3805
2141.089668 612.7599336 3805
2178.062532 620.4898881 3853
2215.283631 628.2198426 3901
2225.370808 628.2198426 3901
2278.436542 640.2978964 3976
2333.617044 652.8590725 4054
2344.099848 652.8590725 4054
2370.264381 657.2071719 4081
2380.817 657.2071719 4081
2407.190983 661.5552713 4108
2433.704598 665.9033707 4135
1914.774043 642.3976826 3926
1924.925865 642.3976826 3926
1910.926183 634.3799835 3877
1885.277199 622.5988747 3805
1895.11614 622.5988747 3805
1881.925401 615.0720552 3759
1869 607.7088622 3714
1878.603634 607.7088622 3714
1877.02241 604.109079 3692
1886.569157 604.109079 3692
1874.032214 597.073139 3649
1861.272892 590.037199 3606
1870.59726 590.037199 3606
1879.921629 590.037199 3606
1889.245997 590.037199 3606
1898.570365 590.037199 3606
1907.894734 590.037199 3606
1917.219102 590.037199 3606
1926.543471 590.037199 3606
1947.141612 593.4733558 3627
1968.387788 597.073139 3649
1977.823346 597.073139 3649
2010.676862 604.109079 3692
2032.261778 607.7088622 3714
2041.865412 607.7088622 3714
2076.325294 615.0720552 3759
2086.045289 615.0720552 3759
2121.411786 622.5988747 3805
2158.136413 630.4529473 3853
2168.099472 630.4529473 3853
2205.196454 638.3070198 3901
2257.874318 650.5790081 3976
2268.15543 650.5790081 3976
2293.335775 654.8332974 4002
2333.617044 663.341876 4054
2344.099848 663.341876 4054
2385.94611 672.1777076 4108
2396.568546 672.1777076 4108
2407.190983 672.1777076 4108
2417.813419 672.1777076 4108
1926.96695 656.7048122 3951
1937.183417 656.7048122 3951
1935.077687 652.5495046 3926
1909.059934 640.4160064 3853
1919.022993 640.4160064 3853
1916.970567 636.4269112 3829
1914.794022 632.4378159 3805
1924.632964 632.4378159 3805
1911.085385 624.7920499 3759
1920.80538 624.7920499 3759
1919.226742 621.1353792 3737
1917.01817 617.3124962 3714
1926.621804 617.3124962 3714
1924.756143 613.6558255 3692
1934.30289 613.6558255 3692
1955.432706 617.3124962 3714
1965.03634 617.3124962 3714
1974.639974 617.3124962 3714
1984.243608 617.3124962 3714
2006.194707 621.1353792 3737
2015.857814 621.1353792 3737
2025.520922 621.1353792 3737
2059.691195 628.6149329 3782
2082.056022 632.4378159 3805
2091.894963 632.4378159 3805
2128.247236 640.4160064 3853
2138.210295 640.4160064 3853
2161.554138 644.4051017 3877
2199.025061 652.5495046 3926
2209.176883 652.5495046 3926
2247.593207 660.8601198 3976
2287.403862 669.5031596 4028
2297.819435 669.5031596 4028
2323.134241 673.8246795 4054
2349.159141 678.3124117 4081
2359.711761 678.3124117 4081
2385.94611 682.8001439 4108
2396.568546 682.8001439 4108
2407.190983 682.8001439 4108
2417.813419 682.8001439 4108
1926.96695 666.9212791 3951
1937.183417 666.9212791 3951
1935.077687 662.7013267 3926
1909.059934 650.3790656 3853
1919.022993 650.3790656 3853
1916.970567 646.3279113 3829
1914.794022 642.276757 3805
1924.632964 642.276757 3805
1911.085385 634.5120446 3759
1920.80538 634.5120446 3759
1919.226742 630.7984864 3737
1917.01817 626.9161302 3714
1926.621804 626.9161302 3714
1924.756143 623.2025721 3692
1934.30289 623.2025721 3692
1955.432706 626.9161302 3714
1965.03634 626.9161302 3714
1974.639974 626.9161302 3714
1984.243608 626.9161302 3714
2006.194707 630.7984864 3737
2015.857814 630.7984864 3737
2025.520922 630.7984864 3737
2059.691195 638.3944008 3782
2082.056022 642.276757 3805
2091.894963 642.276757 3805
2128.247236 650.3790656 3853
2138.210295 650.3790656 3853
2161.554138 654.4302199 3877
2199.025061 662.7013267 3926
2209.176883 662.7013267 3926
2247.593207 671.1412315 3976
2287.403862 679.9187325 4028
2297.819435 679.9187325 4028
2323.134241 684.307483 4054
2349.159141 688.8650316 4081
2359.711761 688.8650316 4081
2385.94611 693.4225802 4108
2396.568546 693.4225802 4108
2407.190983 693.4225802 4108
2417.813419 693.4225802 4108
1939.159856 681.4223432 3976
1949.440968 681.4223432 3976
1947.399884 677.1377459 3951
1945.229509 672.8531487 3926
1955.381331 672.8531487 3926
1941.001537 664.4553381 3877
1938.949111 660.3421248 3853
1948.91217 660.3421248 3853
1958.87523 660.3421248 3853
1968.838289 660.3421248 3853
1966.475567 656.2289115 3829
1963.988728 652.1156981 3805
1973.827669 652.1156981 3805
1971.675984 648.1738687 3782
1981.455452 648.1738687 3782
2003.344493 652.1156981 3805
2013.183434 652.1156981 3805
2035.782569 656.2289115 3829
2045.683569 656.2289115 3829
2068.468881 660.3421248 3853
2078.43194 660.3421248 3853
2088.394999 660.3421248 3853
2124.499036 668.5685515 3901
2148.26595 672.8531487 3926
2158.417772 672.8531487 3926
2182.378621 677.1377459 3951
2192.595088 677.1377459 3951
2231.245721 685.8783243 4002
2256.157143 690.3343054 4028
2266.572716 690.3343054 4028
2291.68583 694.7902865 4054
2317.501281 699.4176515 4081
2328.053901 699.4176515 4081
2354.078801 704.0450165 4108
2364.701237 704.0450165 4108
2375.323674 704.0450165 4108
2385.94611 704.0450165 4108
2396.568546 704.0450165 4108
2407.190983 704.0450165 4108
2417.813419 704.0450165 4108
1939.159856 691.7034548 3976
1949.440968 691.7034548 3976
1947.399884 687.3542128 3951
1945.229509 683.0049708 3926
1955.381331 683.0049708 3926
1941.001537 674.4804563 3877
1938.949111 670.305184 3853
1948.91217 670.305184 3853
1958.87523 670.305184 3853
1968.838289 670.305184 3853
1966.475567 666.1299116 3829
1963.988728 661.9546393 3805
1973.827669 661.9546393 3805
1971.675984 657.9533366 3782
1981.455452 657.9533366 3782
2003.344493 661.9546393 3805
2013.183434 661.9546393 3805
2035.782569 666.1299116 3829
2045.683569 666.1299116 3829
2068.468881 670.305184 3853
2078.43194 670.305184 3853
2088.394999 670.305184 3853
2124.499036 678.6557287 3901
2148.26595 683.0049708 3926
2158.417772 683.0049708 3926
2182.378621 687.3542128 3951
2192.595088 687.3542128 3951
2231.245721 696.2266666 4002
2256.157143 700.7498783 4028
2266.572716 700.7498783 4028
2291.68583 705.27309 4054
2332.833929 714.6674528 4108
2343.456365 714.6674528 4108
2354.078801 714.6674528 4108
2364.701237 714.6674528 4108
2375.323674 714.6674528 4108
2385.94611 714.6674528 4108
2396.568546 714.6674528 4108
2407.190983 714.6674528 4108
2417.813419 714.6674528 4108
1964.521102 711.1654512 4028
1974.936675 711.1654512 4028
1972.537164 706.5750089 4002
1970.003191 701.9845665 3976
1980.284303 701.9845665 3976
1978.049284 697.5706797 3951
1975.684976 693.1567928 3926
1985.836798 693.1567928 3926
1995.98862 693.1567928 3926
2006.140442 693.1567928 3926
2003.452909 688.7429059 3901
2013.540086 688.7429059 3901
2023.627263 688.7429059 3901
2033.714441 688.7429059 3901
2043.801618 688.7429059 3901
2053.888795 688.7429059 3901
2063.975972 688.7429059 3901
2087.355018 693.1567928 3926
2097.50684 693.1567928 3926
2107.658662 693.1567928 3926
2131.296287 697.5706797 3951
2141.512754 697.5706797 3951
2165.344313 701.9845665 3976
2189.852352 706.5750089 4002
2200.200694 706.5750089 4002
2210.549036 706.5750089 4002
2220.897379 706.5750089 4002
2245.74157 711.1654512 4028
2285.843421 720.5228913 4081
2296.396041 720.5228913 4081
2306.948661 720.5228913 4081
2332.833929 725.2898892 4108
2343.456365 725.2898892 4108
2354.078801 725.2898892 4108
2364.701237 725.2898892 4108
2375.323674 725.2898892 4108
2385.94611 725.2898892 4108
2396.568546 725.2898892 4108
2407.190983 725.2898892 4108
1964.521102 721.5810241 4028
1974.936675 721.5810241 4028
1985.352248 721.5810241 4028
1982.885506 716.9233511 4002
1993.233848 716.9233511 4002
2003.582191 716.9233511 4002
2013.930533 716.9233511 4002
2024.278875 716.9233511 4002
2021.40875 712.2656782 3976
2031.689861 712.2656782 3976
2041.970973 712.2656782 3976
2052.252085 712.2656782 3976
2062.533196 712.2656782 3976
2072.814308 712.2656782 3976
2083.09542 712.2656782 3976
2093.376532 712.2656782 3976
2103.657643 712.2656782 3976
2113.938755 712.2656782 3976
2124.219867 712.2656782 3976
2148.458983 716.9233511 4002
2172.83256 721.5810241 4028
2183.248133 721.5810241 4028
2193.663706 721.5810241 4028
2218.306205 726.238697 4054
2228.789009 726.238697 4054
2239.271812 726.238697 4054
2264.738181 731.0755113 4081
2275.290801 731.0755113 4081
2300.96662 735.9123255 4108
2311.589056 735.9123255 4108
2322.211492 735.9123255 4108
2348.166576 740.7491397 4135
2343.456365 735.9123255 4108
2354.078801 735.9123255 4108
2364.701237 735.9123255 4108
2375.323674 735.9123255 4108
2385.94611 735.9123255 4108
2396.568546 735.9123255 4108
2407.190983 735.9123255 4108
1964.521102 731.996597 4028
1974.936675 731.996597 4028
1985.352248 731.996597 4028
1982.885506 727.2716934 4002
1993.233848 727.2716934 4002
2003.582191 727.2716934 4002
2013.930533 727.2716934 4002
2024.278875 727.2716934 4002
2021.40875 722.5467899 3976
2031.689861 722.5467899 3976
2041.970973 722.5467899 3976
2052.252085 722.5467899 3976
2062.533196 722.5467899 3976
2072.814308 722.5467899 3976
2083.09542 722.5467899 3976
2093.376532 722.5467899 3976
2103.657643 722.5467899 3976
2113.938755 722.5467899 3976
2124.219867 722.5467899 3976
2148.458983 727.2716934 4002
2172.83256 731.996597 4028
2183.248133 731.996597 4028
2193.663706 731.996597 4028
2218.306205 736.7215005 4054
2228.789009 736.7215005 4054
2239.271812 736.7215005 4054
2264.738181 741.6281312 4081
2275.290801 741.6281312 4081
2300.96662 746.5347618 4108
2311.589056 746.5347618 4108
2322.211492 746.5347618 4108
2332.833929 746.5347618 4108
2328.053901 741.6281312 4081
2338.606521 741.6281312 4081
2349.159141 741.6281312 4081
2359.711761 741.6281312 4081
2370.264381 741.6281312 4081
2380.817 741.6281312 4081
2391.36962 741.6281312 4081
1964.521102 742.4121699 4028
1974.936675 742.4121699 4028
1985.352248 742.4121699 4028
1995.767821 742.4121699 4028
2006.183394 742.4121699 4028
2016.598966 742.4121699 4028
2013.930533 737.6200357 4002
2024.278875 737.6200357 4002
2034.627217 737.6200357 4002
2044.97556 737.6200357 4002
2055.323902 737.6200357 4002
2065.672244 737.6200357 4002
2089.507977 742.4121699 4028
2086.368929 737.6200357 4002
2096.717271 737.6200357 4002
2107.065613 737.6200357 4002
2117.413956 737.6200357 4002
2127.762298 737.6200357 4002
2138.11064 737.6200357 4002
2148.458983 737.6200357 4002
2172.83256 742.4121699 4028
2183.248133 742.4121699 4028
2193.663706 742.4121699 4028
2204.079279 742.4121699 4028
2214.494851 742.4121699 4028
2239.271812 747.2043041 4054
2249.754616 747.2043041 4054
2260.237419 747.2043041 4054
2285.843421 752.1807511 4081
2296.396041 752.1807511 4081
2306.948661 752.1807511 4081
2317.501281 752.1807511 4081
2312.651437 747.2043041 4054
2323.134241 747.2043041 4054
2333.617044 747.2043041 4054
2344.099848 747.2043041 4054
2354.582651 747.2043041 4054
2365.065455 747.2043041 4054
1964.521102 752.8277428 4028
1974.936675 752.8277428 4028
1985.352248 752.8277428 4028
1995.767821 752.8277428 4028
2006.183394 752.8277428 4028
2016.598966 752.8277428 4028
2013.930533 747.968378 4002
2024.278875 747.968378 4002
2034.627217 747.968378 4002
2044.97556 747.968378 4002
2055.323902 747.968378 4002
2065.672244 747.968378 4002
2089.507977 752.8277428 4028
2086.368929 747.968378 4002
2096.717271 747.968378 4002
2107.065613 747.968378 4002
2117.413956 747.968378 4002
2127.762298 747.968378 4002
2138.11064 747.968378 4002
2148.458983 747.968378 4002
2172.83256 752.8277428 4028
2183.248133 752.8277428 4028
2193.663706 752.8277428 4028
2204.079279 752.8277428 4028
2214.494851 752.8277428 4028
2239.271812 757.6871076 4054
2249.754616 757.6871076 4054
2260.237419 757.6871076 4054
2285.843421 762.733371 4081
2296.396041 762.733371 4081
2306.948661 762.733371 4081
2317.501281 762.733371 4081
2312.651437 757.6871076 4054
2323.134241 757.6871076 4054
2333.617044 757.6871076 4054
2344.099848 757.6871076 4054
2354.582651 757.6871076 4054
1939.159856 753.3901249 3976
1962.188821 758.3167203 4002
1972.537164 758.3167203 4002
1982.885506 758.3167203 4002
1993.233848 758.3167203 4002
1990.565415 753.3901249 3976
2000.846526 753.3901249 3976
2011.127638 753.3901249 3976
