# .PCD v0.7 - Point Cloud Data file format
VERSION 0.7
FIELDS x y z
SIZE 4 4 4
TYPE F F F
COUNT 1 1 1
WIDTH 1606
HEIGHT 1
VIEWPOINT 0 0 0 1 0 0 0
POINTS 1606
DATA ascii
-1805.495436 516.0331175 2651
-1790.498785 513.6972452 2639
-1783.674878 513.6972452 2639
-1776.850971 513.6972452 2639
-1770.027064 513.6972452 2639
-1771.220754 516.0331175 2651
-1764.365818 516.0331175 2651
-1757.510881 516.0331175 2651
-1750.655945 516.0331175 2651
-1743.801008 516.0331175 2651
-1736.946072 516.0331175 2651
-1737.269937 518.1743338 2662
-1730.386557 518.1743338 2662
-1723.503177 518.1743338 2662
-1724.358128 520.5102061 2674
-1717.443718 520.5102061 2674
-1717.565891 522.6514223 2685
-1718.268281 524.9872946 2697
-1711.294398 524.9872946 2697
-1704.320515 524.9872946 2697
-1697.346632 524.9872946 2697
-1697.893874 527.3231669 2709
-1697.754882 529.4643831 2720
-1690.721526 529.4643831 2720
-1691.116206 531.8002554 2732
-1692.065244 534.3307837 2745
-1684.967243 534.3307837 2745
-1685.20419 536.666656 2757
-1685.379077 539.0025283 2769
-1678.219017 539.0025283 2769
-1678.300817 541.3384005 2781
-1671.109727 541.3384005 2781
-1663.918638 541.3384005 2781
-1656.727548 541.3384005 2781
-1649.536459 541.3384005 2781
-1642.345369 541.3384005 2781
-1635.15428 541.3384005 2781
-1620.938538 539.0025283 2769
-1613.778478 539.0025283 2769
-1606.618418 539.0025283 2769
-1599.458358 539.0025283 2769
-1592.298298 539.0025283 2769
-1578.268734 536.666656 2757
-1571.139703 536.666656 2757
-1564.010673 536.666656 2757
-1556.881642 536.666656 2757
-1549.752612 536.666656 2757
-1542.623582 536.666656 2757
-1535.494551 536.666656 2757
-1528.365521 536.666656 2757
-1521.23649 536.666656 2757
-1514.10746 536.666656 2757
-1513.537639 539.0025283 2769
-1506.377579 539.0025283 2769
-1499.217519 539.0025283 2769
-1498.523581 541.3384005 2781
-1491.332491 541.3384005 2781
-1484.141402 541.3384005 2781
-1476.950312 541.3384005 2781
-1469.759223 541.3384005 2781
-1462.568134 541.3384005 2781
-1455.377044 541.3384005 2781
-1454.955612 543.8689288 2794
-1447.730907 543.8689288 2794
-1440.506203 543.8689288 2794
-1426.612686 541.3384005 2781
-1419.421597 541.3384005 2781
-1412.230508 541.3384005 2781
-1398.976681 539.0025283 2769
-1391.816621 539.0025283 2769
-1372.655204 534.3307837 2745
-1365.557203 534.3307837 2745
-1358.459202 534.3307837 2745
-1351.361201 534.3307837 2745
-1344.2632 534.3307837 2745
-1337.165199 534.3307837 2745
-1323.768155 531.8002554 2732
-1316.70377 531.8002554 2732
-1309.639384 531.8002554 2732
-1302.574998 531.8002554 2732
-1295.510613 531.8002554 2732
-1288.446227 531.8002554 2732
-1287.479193 534.3307837 2745
-1280.381192 534.3307837 2745
-521.0921368 241.5681248 1241
-517.8831681 241.5681248 1241
-1984.324313 553.6577772 2807
-1941.849284 543.7956864 2757
-1934.720254 543.7956864 2757
-1901.722208 536.4977392 2720
-1870.308665 529.5942757 2685
-1863.365811 529.5942757 2685
-1848.817501 527.4246157 2674
-1841.903091 527.4246157 2674
-1826.753878 525.0577139 2662
-1804.146598 520.5211521 2639
-1797.322692 520.5211521 2639
-1790.498785 520.5211521 2639
-1783.674878 520.5211521 2639
-1776.850971 520.5211521 2639
-1770.027064 520.5211521 2639
-1771.220754 522.8880539 2651
-1764.365818 522.8880539 2651
-1757.510881 522.8880539 2651
-1750.655945 522.8880539 2651
-1743.801008 522.8880539 2651
-1736.946072 522.8880539 2651
-1737.269937 525.0577139 2662
-1730.386557 525.0577139 2662
-1731.272537 527.4246157 2674
-1731.451598 529.5942757 2685
-1724.508745 529.5942757 2685
-1725.242164 531.9611774 2697
-1725.913523 534.3280792 2709
-1718.908611 534.3280792 2709
-1718.85495 536.4977392 2720
-1711.821594 536.4977392 2720
-1712.309363 538.864641 2732
-1713.359247 541.4287846 2745
-1706.261246 541.4287846 2745
-1706.591281 543.7956864 2757
-1706.859257 546.1625882 2769
-1699.699197 546.1625882 2769
-1692.539137 546.1625882 2769
-1692.682995 548.52949 2781
-1685.491906 548.52949 2781
-1678.300817 548.52949 2781
-1671.109727 548.52949 2781
-1663.918638 548.52949 2781
-1656.727548 548.52949 2781
-1649.536459 548.52949 2781
-1642.345369 548.52949 2781
-1635.15428 548.52949 2781
-1627.96319 548.52949 2781
-1613.778478 546.1625882 2769
-1606.618418 546.1625882 2769
-1599.458358 546.1625882 2769
-1592.298298 546.1625882 2769
-1585.138239 546.1625882 2769
-1577.978179 546.1625882 2769
-1570.818119 546.1625882 2769
-1563.658059 546.1625882 2769
-1556.497999 546.1625882 2769
-1549.337939 546.1625882 2769
-1542.177879 546.1625882 2769
-1535.017819 546.1625882 2769
-1527.857759 546.1625882 2769
-1527.287938 548.52949 2781
-1520.096849 548.52949 2781
-1512.90576 548.52949 2781
-1512.75325 551.0936336 2794
-1505.528545 551.0936336 2794
-1498.303841 551.0936336 2794
-1491.079136 551.0936336 2794
-1490.75855 553.6577772 2807
-1483.50023 553.6577772 2807
-1476.24191 553.6577772 2807
-1468.98359 553.6577772 2807
-1461.72527 553.6577772 2807
-1454.46695 553.6577772 2807
-1447.20863 553.6577772 2807
-1433.281498 551.0936336 2794
-1426.056793 551.0936336 2794
-1412.230508 548.52949 2781
-1405.039418 548.52949 2781
-1397.848329 548.52949 2781
-1378.655882 543.7956864 2757
-1371.526852 543.7956864 2757
-1364.397821 543.7956864 2757
-1351.361201 541.4287846 2745
-1344.2632 541.4287846 2745
-1330.832541 538.864641 2732
-1323.768155 538.864641 2732
-1316.70377 538.864641 2732
-1309.639384 538.864641 2732
-1302.574998 538.864641 2732
-1289.820229 536.4977392 2720
-1282.786873 536.4977392 2720
-1287.479193 541.4287846 2745
-1280.381192 541.4287846 2745
-526.2348685 244.1853681 1238
-523.0336572 244.1853681 1238
-517.732961 243.199159 1233
-514.5446787 243.199159 1233
-1984.324313 560.9160972 2807
-1950.301294 553.3226481 2769
-1943.141234 553.3226481 2769
-1901.722208 543.5310953 2720
-1870.308665 536.537129 2685
-1863.365811 536.537129 2685
-1848.817501 534.3390253 2674
-1841.903091 534.3390253 2674
-1826.753878 531.941094 2662
-1804.146598 527.345059 2639
-1797.322692 527.345059 2639
-1790.498785 527.345059 2639
-1783.674878 527.345059 2639
-1776.850971 527.345059 2639
-1770.027064 527.345059 2639
-1771.220754 529.7429903 2651
-1764.365818 529.7429903 2651
-1757.510881 529.7429903 2651
-1757.920077 531.941094 2662
-1751.036697 531.941094 2662
-1744.153317 531.941094 2662
-1745.101357 534.3390253 2674
-1738.186947 534.3390253 2674
-1738.394451 536.537129 2685
-1746.92826 541.3329916 2709
-1739.923348 541.3329916 2709
-1739.955019 543.5310953 2720
-1748.849251 548.5267855 2745
-1741.75125 548.5267855 2745
-1734.653249 548.5267855 2745
-1727.555249 548.5267855 2745
-1727.978372 550.9247168 2757
-1728.339437 553.3226481 2769
-1721.179377 553.3226481 2769
-1721.447353 555.7205794 2781
-1714.256264 555.7205794 2781
-1707.065174 555.7205794 2781
-1707.820278 558.3183383 2794
-1700.595573 558.3183383 2794
-1693.370868 558.3183383 2794
-1686.146164 558.3183383 2794
-1678.921459 558.3183383 2794
-1663.918638 555.7205794 2781
-1656.727548 555.7205794 2781
-1649.536459 555.7205794 2781
-1642.345369 555.7205794 2781
-1635.15428 555.7205794 2781
-1627.96319 555.7205794 2781
-1620.772101 555.7205794 2781
-1613.581012 555.7205794 2781
-1599.458358 553.3226481 2769
-1592.298298 553.3226481 2769
-1585.138239 553.3226481 2769
-1577.978179 553.3226481 2769
-1570.818119 553.3226481 2769
-1563.658059 553.3226481 2769
-1563.243386 555.7205794 2781
-1556.052296 555.7205794 2781
-1548.861207 555.7205794 2781
-1548.876774 558.3183383 2794
-1541.652069 558.3183383 2794
-1534.427364 558.3183383 2794
-1534.30847 560.9160972 2807
-1527.05015 560.9160972 2807
-1519.79183 560.9160972 2807
-1518.999631 563.3140285 2819
-1511.710282 563.3140285 2819
-1504.420932 563.3140285 2819
-1504.035701 565.9117874 2832
-1496.712736 565.9117874 2832
-1489.389771 565.9117874 2832
-1482.066807 565.9117874 2832
-1474.743842 565.9117874 2832
-1467.420877 565.9117874 2832
-1453.395485 563.3140285 2819
-1439.95031 560.9160972 2807
-1432.691989 560.9160972 2807
-1418.832088 558.3183383 2794
-1405.039418 555.7205794 2781
-1397.848329 555.7205794 2781
-1384.656561 553.3226481 2769
-1377.496501 553.3226481 2769
-1364.397821 550.9247168 2757
-1351.361201 548.5267855 2745
-1344.2632 548.5267855 2745
-1330.832541 545.9290266 2732
-1323.768155 545.9290266 2732
-1316.70377 545.9290266 2732
-1309.639384 545.9290266 2732
-1302.574998 545.9290266 2732
-1289.820229 543.5310953 2720
-1282.786873 543.5310953 2720
-526.2348685 247.3865794 1238
-523.0336572 247.3865794 1238
-517.732961 246.3874414 1233
-514.5446787 246.3874414 1233
-1984.324313 568.1744173 2807
-1950.301294 560.482708 2769
-1943.141234 560.482708 2769
-1901.722208 550.5644514 2720
-1870.308665 543.4799823 2685
-1863.365811 543.4799823 2685
-1848.817501 541.2534349 2674
-1841.903091 541.2534349 2674
-1826.753878 538.8244741 2662
-1804.146598 534.1689659 2639
-1797.322692 534.1689659 2639
-1790.498785 534.1689659 2639
-1783.674878 534.1689659 2639
-1776.850971 534.1689659 2639
-1770.027064 534.1689659 2639
-1771.220754 536.5979267 2651
-1764.365818 536.5979267 2651
-1757.510881 536.5979267 2651
-1757.920077 538.8244741 2662
-1751.036697 538.8244741 2662
-1744.153317 538.8244741 2662
-1745.101357 541.2534349 2674
-1738.186947 541.2534349 2674
-1738.394451 543.4799823 2685
-1746.92826 548.337904 2709
-1739.923348 548.337904 2709
-1739.955019 550.5644514 2720
-1748.849251 555.6247864 2745
-1741.75125 555.6247864 2745
-1734.653249 555.6247864 2745
-1727.555249 555.6247864 2745
-1727.978372 558.0537472 2757
-1728.339437 560.482708 2769
-1721.179377 560.482708 2769
-1721.447353 562.9116688 2781
-1714.256264 562.9116688 2781
-1707.065174 562.9116688 2781
-1707.820278 565.5430431 2794
-1700.595573 565.5430431 2794
-1693.370868 565.5430431 2794
-1686.146164 565.5430431 2794
-1678.921459 565.5430431 2794
-1663.918638 562.9116688 2781
-1656.727548 562.9116688 2781
-1649.536459 562.9116688 2781
-1642.345369 562.9116688 2781
-1635.15428 562.9116688 2781
-1627.96319 562.9116688 2781
-1620.772101 562.9116688 2781
-1613.581012 562.9116688 2781
-1599.458358 560.482708 2769
-1592.298298 560.482708 2769
-1585.138239 560.482708 2769
-1577.978179 560.482708 2769
-1570.818119 560.482708 2769
-1563.658059 560.482708 2769
-1563.243386 562.9116688 2781
-1556.052296 562.9116688 2781
-1548.861207 562.9116688 2781
-1548.876774 565.5430431 2794
-1541.652069 565.5430431 2794
-1534.427364 565.5430431 2794
-1534.30847 568.1744173 2807
-1527.05015 568.1744173 2807
-1519.79183 568.1744173 2807
-1518.999631 570.6033781 2819
-1511.710282 570.6033781 2819
-1504.420932 570.6033781 2819
-1504.035701 573.2347523 2832
-1496.712736 573.2347523 2832
-1489.389771 573.2347523 2832
-1482.066807 573.2347523 2832
-1474.743842 573.2347523 2832
-1467.420877 573.2347523 2832
-1453.395485 570.6033781 2819
-1439.95031 568.1744173 2807
-1432.691989 568.1744173 2807
-1418.832088 565.5430431 2794
-1405.039418 562.9116688 2781
-1397.848329 562.9116688 2781
-1384.656561 560.482708 2769
-1377.496501 560.482708 2769
-1364.397821 558.0537472 2757
-1351.361201 555.6247864 2745
-1344.2632 555.6247864 2745
-1330.832541 552.9934122 2732
-1323.768155 552.9934122 2732
-1316.70377 552.9934122 2732
-1309.639384 552.9934122 2732
-1302.574998 552.9934122 2732
-1289.820229 550.5644514 2720
-1282.786873 550.5644514 2720
-525.3847314 250.1829639 1236
-522.1886917 250.1829639 1236
-515.6334762 248.5636567 1228
-1992.807352 577.8927276 2819
-1950.301294 567.6427679 2769
-1943.141234 567.6427679 2769
-1910.112159 560.0577978 2732
-1870.308665 550.4228357 2685
-1863.365811 550.4228357 2685
-1848.817501 548.1678445 2674
-1841.903091 548.1678445 2674
-1826.753878 545.7078542 2662
-1812.350372 543.4528631 2651
-1805.495436 543.4528631 2651
-1790.498785 540.9928727 2639
-1783.674878 540.9928727 2639
-1776.850971 540.9928727 2639
-1770.027064 540.9928727 2639
-1771.220754 543.4528631 2651
-1771.686838 545.7078542 2662
-1764.803457 545.7078542 2662
-1765.844586 548.1678445 2674
-1758.930176 548.1678445 2674
-1752.015766 548.1678445 2674
-1760.111578 552.882826 2697
-1753.137695 552.882826 2697
-1753.933173 555.3428163 2709
-1761.760062 560.0577978 2732
-1754.695676 560.0577978 2732
-1755.947252 562.7227873 2745
-1756.494494 565.1827776 2757
-1749.365463 565.1827776 2757
-1749.819617 567.6427679 2769
-1742.659557 567.6427679 2769
-1743.020621 570.1027583 2781
-1735.829532 570.1027583 2781
-1728.638443 570.1027583 2781
-1729.494392 572.7677478 2794
-1722.269687 572.7677478 2794
-1715.044983 572.7677478 2794
-1715.766471 575.4327373 2807
-1708.508151 575.4327373 2807
-1701.249831 575.4327373 2807
-1693.991511 575.4327373 2807
-1686.733191 575.4327373 2807
-1679.474871 575.4327373 2807
-1672.216551 575.4327373 2807
-1657.247345 572.7677478 2794
-1650.02264 572.7677478 2794
-1642.797935 572.7677478 2794
-1627.96319 570.1027583 2781
-1620.772101 570.1027583 2781
-1613.581012 570.1027583 2781
-1606.389922 570.1027583 2781
-1599.198833 570.1027583 2781
-1592.007743 570.1027583 2781
-1584.816654 570.1027583 2781
-1577.625564 570.1027583 2781
-1570.434475 570.1027583 2781
-1570.550888 572.7677478 2794
-1570.60007 575.4327373 2807
-1563.34175 575.4327373 2807
-1556.08343 575.4327373 2807
-1555.446379 577.8927276 2819
-1548.157029 577.8927276 2819
-1540.86768 577.8927276 2819
-1533.57833 577.8927276 2819
-1533.327561 580.5577172 2832
-1526.004596 580.5577172 2832
-1518.681631 580.5577172 2832
-1518.2964 583.2227067 2845
-1510.93982 583.2227067 2845
-1503.58324 583.2227067 2845
-1496.226659 583.2227067 2845
-1488.870079 583.2227067 2845
-1481.513499 583.2227067 2845
-1474.156919 583.2227067 2845
-1460.097912 580.5577172 2832
-1446.106136 577.8927276 2819
-1438.816786 577.8927276 2819
-1425.433669 575.4327373 2807
-1411.607384 572.7677478 2794
-1404.382679 572.7677478 2794
-1384.656561 567.6427679 2769
-1377.496501 567.6427679 2769
-1364.397821 565.1827776 2757
-1357.268791 565.1827776 2757
-1350.139761 565.1827776 2757
-1330.832541 560.0577978 2732
-1323.768155 560.0577978 2732
-1316.70377 560.0577978 2732
-1309.639384 560.0577978 2732
-524.3042277 251.3290117 1226
-521.1340459 251.3290117 1226
-516.6964158 250.7140142 1223
-511.8544035 249.8940174 1219
-1992.807352 585.1820772 2819
-1950.301294 574.8028279 2769
-1943.141234 574.8028279 2769
-1910.112159 567.1221834 2732
-1870.308665 557.365689 2685
-1863.365811 557.365689 2685
-1848.817501 555.0822541 2674
-1841.903091 555.0822541 2674
-1826.753878 552.5912343 2662
-1812.350372 550.3077994 2651
-1805.495436 550.3077994 2651
-1790.498785 547.8167796 2639
-1783.674878 547.8167796 2639
-1776.850971 547.8167796 2639
-1770.027064 547.8167796 2639
-1771.220754 550.3077994 2651
-1771.686838 552.5912343 2662
-1764.803457 552.5912343 2662
-1765.844586 555.0822541 2674
-1758.930176 555.0822541 2674
-1752.015766 555.0822541 2674
-1760.111578 559.8567088 2697
-1753.137695 559.8567088 2697
-1753.933173 562.3477287 2709
-1761.760062 567.1221834 2732
-1754.695676 567.1221834 2732
-1755.947252 569.8207882 2745
-1756.494494 572.311808 2757
-1749.365463 572.311808 2757
-1749.819617 574.8028279 2769
-1742.659557 574.8028279 2769
-1743.020621 577.2938477 2781
-1735.829532 577.2938477 2781
-1728.638443 577.2938477 2781
-1753.016506 587.880682 2832
-1745.693541 587.880682 2832
-1738.370577 587.880682 2832
-1731.047612 587.880682 2832
-1723.724647 587.880682 2832
-1716.401682 587.880682 2832
-1709.078717 587.880682 2832
-1693.94402 585.1820772 2819
-1686.654671 585.1820772 2819
-1679.365321 585.1820772 2819
-1672.075972 585.1820772 2819
-1664.786622 585.1820772 2819
-1657.497273 585.1820772 2819
-1643.183271 582.6910574 2807
-1635.924951 582.6910574 2807
-1628.666631 582.6910574 2807
-1613.899116 579.9924525 2794
-1606.674412 579.9924525 2794
-1599.449707 579.9924525 2794
-1592.225002 579.9924525 2794
-1585.000297 579.9924525 2794
-1577.775593 579.9924525 2794
-1570.550888 579.9924525 2794
-1570.60007 582.6910574 2807
-1563.34175 582.6910574 2807
-1562.735728 585.1820772 2819
-1555.446379 585.1820772 2819
-1548.157029 585.1820772 2819
-1547.97349 587.880682 2832
-1540.650525 587.880682 2832
-1533.327561 587.880682 2832
-1533.00956 590.5792868 2845
-1525.65298 590.5792868 2845
-1525.234134 593.2778917 2858
-1517.843938 593.2778917 2858
-1510.453743 593.2778917 2858
-1503.063548 593.2778917 2858
-1495.673352 593.2778917 2858
-1488.283157 593.2778917 2858
-1480.892961 593.2778917 2858
-1460.097912 587.880682 2832
-1452.774947 587.880682 2832
-1445.451982 587.880682 2832
-1425.433669 582.6910574 2807
-1411.607384 579.9924525 2794
-1404.382679 579.9924525 2794
-1390.657239 577.2938477 2781
-1383.46615 577.2938477 2781
-1364.397821 572.311808 2757
-1357.268791 572.311808 2757
-1350.139761 572.311808 2757
-1343.01073 572.311808 2757
-524.3042277 254.4991936 1226
-521.1340459 254.4991936 1226
-516.6964158 253.8764386 1223
-1984.324313 589.9493774 2807
-1950.301294 581.9628878 2769
-1943.141234 581.9628878 2769
-1910.112159 574.186569 2732
-1878.667586 566.8305917 2697
-1871.693703 566.8305917 2697
-1848.817501 561.9966638 2674
-1841.903091 561.9966638 2674
-1826.753878 559.4746144 2662
-1812.350372 557.1627358 2651
-1805.495436 557.1627358 2651
-1798.640499 557.1627358 2651
-1791.785563 557.1627358 2651
-1784.930627 557.1627358 2651
-1778.07569 557.1627358 2651
-1786.587814 561.9966638 2674
-1786.994425 564.3085423 2685
-1780.051571 564.3085423 2685
-1773.108718 564.3085423 2685
-1766.165865 564.3085423 2685
-1767.085461 566.8305917 2697
-1767.942998 569.352641 2709
-1760.938085 569.352641 2709
-1777.241255 576.9187891 2745
-1785.619916 581.9628878 2769
-1778.459856 581.9628878 2769
-1787.29203 587.2171573 2794
-1788.349671 589.9493774 2807
-1781.091351 589.9493774 2807
-1781.416215 592.4714267 2819
-1774.126865 592.4714267 2819
-1766.837516 592.4714267 2819
-1759.548166 592.4714267 2819
-1752.258817 592.4714267 2819
-1753.016506 595.2036469 2832
-1745.693541 595.2036469 2832
-1738.370577 595.2036469 2832
-1731.047612 595.2036469 2832
-1723.724647 595.2036469 2832
-1716.401682 595.2036469 2832
-1709.078717 595.2036469 2832
-1693.94402 592.4714267 2819
-1686.654671 592.4714267 2819
-1679.365321 592.4714267 2819
-1672.075972 592.4714267 2819
-1664.786622 592.4714267 2819
-1657.497273 592.4714267 2819
-1643.183271 589.9493774 2807
-1635.924951 589.9493774 2807
-1628.666631 589.9493774 2807
-1613.899116 587.2171573 2794
-1606.674412 587.2171573 2794
-1599.449707 587.2171573 2794
-1592.225002 587.2171573 2794
-1585.000297 587.2171573 2794
-1577.775593 587.2171573 2794
-1570.550888 587.2171573 2794
-1570.60007 589.9493774 2807
-1563.34175 589.9493774 2807
-1562.735728 592.4714267 2819
-1555.446379 592.4714267 2819
-1548.157029 592.4714267 2819
-1547.97349 595.2036469 2832
-1540.650525 595.2036469 2832
-1533.327561 595.2036469 2832
-1533.00956 597.935867 2845
-1525.65298 597.935867 2845
-1525.234134 600.6680871 2858
-1517.843938 600.6680871 2858
-1510.453743 600.6680871 2858
-1503.063548 600.6680871 2858
-1495.673352 600.6680871 2858
-1488.283157 600.6680871 2858
-1480.892961 600.6680871 2858
-1460.097912 595.2036469 2832
-1452.774947 595.2036469 2832
-1445.451982 595.2036469 2832
-1425.433669 589.9493774 2807
-1411.607384 587.2171573 2794
-1404.382679 587.2171573 2794
-1390.657239 584.4849371 2781
-1383.46615 584.4849371 2781
-1364.397821 579.4408384 2757
-1357.268791 579.4408384 2757
-1350.139761 579.4408384 2757
-1337.165199 576.9187891 2745
-1323.768155 574.186569 2732
-1316.70377 574.186569 2732
-1309.639384 574.186569 2732
-523.0212647 257.038863 1223
-519.8588402 257.038863 1223
-515.8514503 256.6185215 1221
-1984.324313 597.2076974 2807
-1950.301294 589.1229477 2769
-1943.141234 589.1229477 2769
-1910.112159 581.2509545 2732
-1878.667586 573.8044745 2697
-1871.693703 573.8044745 2697
-1856.422958 571.2513957 2685
-1849.480105 571.2513957 2685
-1834.988682 568.9110734 2674
-1819.870498 566.3579945 2662
-1812.987118 566.3579945 2662
-1806.103738 566.3579945 2662
-1799.220358 566.3579945 2662
-1792.336978 566.3579945 2662
-1785.453598 566.3579945 2662
-1793.937278 571.2513957 2685
-1794.980992 573.8044745 2697
-1788.007109 573.8044745 2697
-1788.957735 576.3575534 2709
-1781.952822 576.3575534 2709
-1790.017604 581.2509545 2732
-1791.437257 584.01679 2745
-1784.339256 584.01679 2745
-1800.549337 591.6760266 2781
-1810.124632 597.2076974 2807
-1802.866312 597.2076974 2807
-1811.600225 602.5266117 2832
-1820.841953 608.0582826 2858
-1813.451757 608.0582826 2858
-1806.061562 608.0582826 2858
-1807.482213 611.0368746 2872
-1800.055816 611.0368746 2872
-1792.62942 611.0368746 2872
-1785.203023 611.0368746 2872
-1777.776626 611.0368746 2872
-1770.35023 611.0368746 2872
-1762.923833 611.0368746 2872
-1755.497437 611.0368746 2872
-1748.07104 611.0368746 2872
-1740.644644 611.0368746 2872
-1724.769412 608.0582826 2858
-1717.379216 608.0582826 2858
-1709.989021 608.0582826 2858
-1702.598825 608.0582826 2858
-1687.497744 605.2924472 2845
-1680.141164 605.2924472 2845
-1672.784583 605.2924472 2845
-1665.428003 605.2924472 2845
-1658.071423 605.2924472 2845
-1650.714843 605.2924472 2845
-1628.339874 599.7607763 2819
-1621.050525 599.7607763 2819
-1613.761175 599.7607763 2819
-1606.471826 599.7607763 2819
-1599.182476 599.7607763 2819
-1591.893127 599.7607763 2819
-1584.603777 599.7607763 2819
-1584.588315 602.5266117 2832
-1577.26535 602.5266117 2832
-1569.942385 602.5266117 2832
-1569.792461 605.2924472 2845
-1562.435881 605.2924472 2845
-1555.079301 605.2924472 2845
-1547.722721 605.2924472 2845
-1547.40472 608.0582826 2858
-1547.558333 611.0368746 2872
-1540.131936 611.0368746 2872
-1532.70554 611.0368746 2872
-1532.183262 613.80271 2885
-1524.72325 613.80271 2885
-1510.42635 611.0368746 2872
-1502.999954 611.0368746 2872
-1495.573557 611.0368746 2872
-1488.14716 611.0368746 2872
-1473.502766 608.0582826 2858
-1459.443759 605.2924472 2845
-1452.087178 605.2924472 2845
-1438.129017 602.5266117 2832
-1418.175349 597.2076974 2807
-1410.917029 597.2076974 2807
-1397.157974 594.441862 2794
-1389.93327 594.441862 2794
-1376.27506 591.6760266 2781
-1363.176381 589.1229477 2769
-1356.016321 589.1229477 2769
-1337.165199 584.01679 2745
-1323.768155 581.2509545 2732
-1316.70377 581.2509545 2732
-1309.639384 581.2509545 2732
-1302.574998 581.2509545 2732
-1295.510613 581.2509545 2732
-522.165956 259.7757743 1221
-519.0087031 259.7757743 1221
-1975.134353 601.6665667 2794
-1941.849284 593.6988992 2757
-1934.720254 593.6988992 2757
-1901.722208 585.7312318 2720
-1878.667586 580.7783574 2697
-1871.693703 580.7783574 2697
-1856.422958 578.194249 2685
-1849.480105 578.194249 2685
-1834.988682 575.825483 2674
-1819.870498 573.2413746 2662
-1812.987118 573.2413746 2662
-1806.103738 573.2413746 2662
-1799.220358 573.2413746 2662
-1792.336978 573.2413746 2662
-1785.453598 573.2413746 2662
-1793.937278 578.194249 2685
-1794.980992 580.7783574 2697
-1788.007109 580.7783574 2697
-1788.957735 583.3624657 2709
-1781.952822 583.3624657 2709
-1790.017604 588.3153401 2732
-1791.437257 591.1147909 2745
-1784.339256 591.1147909 2745
-1800.549337 598.867116 2781
-1810.124632 604.4660175 2807
-1802.866312 604.4660175 2807
-1811.600225 609.8495766 2832
-1820.841953 615.4484781 2858
-1813.451757 615.4484781 2858
-1806.061562 615.4484781 2858
-1807.482213 618.4632712 2872
-1800.055816 618.4632712 2872
-1792.62942 618.4632712 2872
-1785.203023 618.4632712 2872
-1777.776626 618.4632712 2872
-1770.35023 618.4632712 2872
-1762.923833 618.4632712 2872
-1755.497437 618.4632712 2872
-1748.07104 618.4632712 2872
-1740.644644 618.4632712 2872
-1724.769412 615.4484781 2858
-1717.379216 615.4484781 2858
-1709.989021 615.4484781 2858
-1702.598825 615.4484781 2858
-1687.497744 612.6490273 2845
-1680.141164 612.6490273 2845
-1672.784583 612.6490273 2845
-1665.428003 612.6490273 2845
-1658.071423 612.6490273 2845
-1650.714843 612.6490273 2845
-1628.339874 607.0501259 2819
-1621.050525 607.0501259 2819
-1613.761175 607.0501259 2819
-1606.471826 607.0501259 2819
-1599.182476 607.0501259 2819
-1591.893127 607.0501259 2819
-1584.603777 607.0501259 2819
-1584.588315 609.8495766 2832
-1577.26535 609.8495766 2832
-1569.942385 609.8495766 2832
-1569.792461 612.6490273 2845
-1562.435881 612.6490273 2845
-1555.079301 612.6490273 2845
-1547.722721 612.6490273 2845
-1547.40472 615.4484781 2858
-1547.558333 618.4632712 2872
-1540.131936 618.4632712 2872
-1532.70554 618.4632712 2872
-1532.183262 621.2627219 2885
-1524.72325 621.2627219 2885
-1510.42635 618.4632712 2872
-1502.999954 618.4632712 2872
-1495.573557 618.4632712 2872
-1488.14716 618.4632712 2872
-1473.502766 615.4484781 2858
-1466.11257 615.4484781 2858
-1465.867971 618.4632712 2872
-1444.730598 612.6490273 2845
-1424.238087 607.0501259 2819
-1416.948737 607.0501259 2819
-1403.658709 604.4660175 2807
-1396.400389 604.4660175 2807
-1382.708565 601.6665667 2794
-1369.083971 598.867116 2781
-1361.892882 598.867116 2781
-1343.01073 593.6988992 2757
-1330.067198 591.1147909 2745
-1322.969198 591.1147909 2745
-1309.639384 588.3153401 2732
-1302.574998 588.3153401 2732
-1295.510613 588.3153401 2732
-522.165956 262.9330272 1221
-519.0087031 262.9330272 1221
-1965.944394 606.0582054 2781
-1933.397275 598.2127918 2745
-1926.299274 598.2127918 2745
-1901.722208 592.7645878 2720
-1887.026508 590.3673781 2709
-1880.021595 590.3673781 2709
-1856.422958 585.1371023 2685
-1849.480105 585.1371023 2685
-1834.988682 582.7398926 2674
-1819.870498 580.1247547 2662
-1812.987118 580.1247547 2662
-1806.103738 580.1247547 2662
-1799.220358 580.1247547 2662
-1800.416634 582.7398926 2674
-1793.502224 582.7398926 2674
-1801.954875 587.7522402 2697
-1802.967559 590.3673781 2709
-1795.962647 590.3673781 2709
-1804.146375 595.3797257 2732
-1797.08199 595.3797257 2732
-1806.397707 600.8279297 2757
-1814.931516 606.0582054 2781
-1807.740426 606.0582054 2781
-1825.152312 614.3394754 2819
-1834.629347 620.0056075 2845
-1827.272767 620.0056075 2845
-1837.187799 625.8896677 2872
-1846.326095 631.5557998 2898
-1838.832468 631.5557998 2898
-1831.33884 631.5557998 2898
-1832.65606 634.606794 2912
-1816.351586 631.5557998 2898
-1808.857959 631.5557998 2898
-1801.364332 631.5557998 2898
-1793.870705 631.5557998 2898
-1786.377077 631.5557998 2898
-1778.88345 631.5557998 2898
-1771.389823 631.5557998 2898
-1763.896196 631.5557998 2898
-1756.402569 631.5557998 2898
-1741.063594 628.7227338 2885
-1733.603582 628.7227338 2885
-1726.143571 628.7227338 2885
-1718.683559 628.7227338 2885
-1703.512661 625.8896677 2872
-1696.086264 625.8896677 2872
-1688.659868 625.8896677 2872
-1673.038043 622.8386735 2858
-1665.647848 622.8386735 2858
-1658.257652 622.8386735 2858
-1643.358263 620.0056075 2845
-1636.001683 620.0056075 2845
-1628.645102 620.0056075 2845
-1621.288522 620.0056075 2845
-1613.931942 620.0056075 2845
-1606.575362 620.0056075 2845
-1606.526284 622.8386735 2858
-1599.136089 622.8386735 2858
-1591.745893 622.8386735 2858
-1584.355698 622.8386735 2858
-1584.690316 625.8896677 2872
-1577.263919 625.8896677 2872
-1569.837523 625.8896677 2872
-1562.411126 625.8896677 2872
-1562.023309 628.7227338 2885
-1554.563298 628.7227338 2885
-1547.103286 628.7227338 2885
-1546.581008 631.5557998 2898
-1539.087381 631.5557998 2898
-1531.593753 631.5557998 2898
-1524.100126 631.5557998 2898
-1516.606499 631.5557998 2898
-1509.112872 631.5557998 2898
-1501.619245 631.5557998 2898
-1487.423191 628.7227338 2885
-1473.294367 625.8896677 2872
-1465.867971 625.8896677 2872
-1444.730598 620.0056075 2845
-1424.238087 614.3394754 2819
-1416.948737 614.3394754 2819
-1403.658709 611.7243375 2807
-1396.400389 611.7243375 2807
-1382.708565 608.8912715 2794
-1369.083971 606.0582054 2781
-1361.892882 606.0582054 2781
-1343.01073 600.8279297 2757
-1330.067198 598.2127918 2745
-1322.969198 598.2127918 2745
-1309.639384 595.3797257 2732
-1302.574998 595.3797257 2732
-1295.510613 595.3797257 2732
-520.0276843 265.0006393 1216
-1965.944394 613.2492949 2781
-1933.397275 605.3107927 2745
-1926.299274 605.3107927 2745
-1901.722208 599.7979439 2720
-1887.026508 597.3722905 2709
-1880.021595 597.3722905 2709
-1856.422958 592.0799557 2685
-1849.480105 592.0799557 2685
-1842.537251 592.0799557 2685
-1828.074272 589.6543022 2674
-1821.159862 589.6543022 2674
-1814.245453 589.6543022 2674
-1807.331043 589.6543022 2674
-1807.822985 592.0799557 2685
-1800.880131 592.0799557 2685
-1809.972472 597.3722905 2709
-1810.288579 599.7979439 2720
-1803.255223 599.7979439 2720
-1812.731259 605.3107927 2745
-1805.633258 605.3107927 2745
-1806.397707 607.9569601 2757
-1823.415554 616.1159762 2794
-1816.190849 616.1159762 2794
-1833.56912 624.4955063 2832
-1843.012539 630.228869 2858
-1835.622344 630.228869 2858
-1845.50376 636.1827457 2885
-1846.326095 639.049427 2898
-1838.832468 639.049427 2898
-1840.185888 642.1366223 2912
-1832.65606 642.1366223 2912
-1825.126231 642.1366223 2912
-1817.596403 642.1366223 2912
-1810.066575 642.1366223 2912
-1802.536747 642.1366223 2912
-1795.006918 642.1366223 2912
-1787.47709 642.1366223 2912
-1779.947262 642.1366223 2912
-1772.417433 642.1366223 2912
-1764.887605 642.1366223 2912
-1748.908941 639.049427 2898
-1741.415314 639.049427 2898
-1726.143571 636.1827457 2885
-1718.683559 636.1827457 2885
-1711.223547 636.1827457 2885
-1703.763535 636.1827457 2885
-1696.303523 636.1827457 2885
-1681.233471 633.3160643 2872
-1673.807075 633.3160643 2872
-1666.380678 633.3160643 2872
-1650.867457 630.228869 2858
-1643.477261 630.228869 2858
-1636.087066 630.228869 2858
-1628.69687 630.228869 2858
-1621.306675 630.228869 2858
-1613.91648 630.228869 2858
-1606.526284 630.228869 2858
-1606.969505 633.3160643 2872
-1599.543109 633.3160643 2872
-1592.116712 633.3160643 2872
-1584.690316 633.3160643 2872
-1577.263919 633.3160643 2872
-1569.837523 633.3160643 2872
-1562.411126 633.3160643 2872
-1562.023309 636.1827457 2885
-1561.568262 639.049427 2898
-1554.074635 639.049427 2898
-1546.581008 639.049427 2898
-1539.087381 639.049427 2898
-1531.593753 639.049427 2898
-1524.100126 639.049427 2898
-1516.606499 639.049427 2898
-1509.112872 639.049427 2898
-1501.619245 639.049427 2898
-1487.423191 636.1827457 2885
-1473.294367 633.3160643 2872
-1465.867971 633.3160643 2872
-1451.332179 630.228869 2858
-1437.374018 627.3621877 2845
-1430.017438 627.3621877 2845
-1409.659388 621.628825 2819
-1402.370038 621.628825 2819
-1382.708565 616.1159762 2794
-1369.083971 613.2492949 2781
-1361.892882 613.2492949 2781
-1348.856261 610.6031275 2769
-1330.067198 605.3107927 2745
-1322.969198 605.3107927 2745
-1309.639384 602.4441113 2732
-1302.574998 602.4441113 2732
-1295.510613 602.4441113 2732
-520.0276843 268.1449632 1216
-1948.978315 615.0859905 2757
-1924.24093 609.5084969 2732
-1917.176545 609.5084969 2732
-1894.03142 604.3772028 2709
-1878.667586 601.7000059 2697
-1871.693703 601.7000059 2697
-1856.422958 599.022809 2685
-1849.480105 599.022809 2685
-1842.537251 599.022809 2685
-1828.074272 596.5687118 2674
-1821.159862 596.5687118 2674
-1814.245453 596.5687118 2674
-1807.331043 596.5687118 2674
-1807.822985 599.022809 2685
-1800.880131 599.022809 2685
-1809.972472 604.3772028 2709
-1810.288579 606.8313 2720
-1803.255223 606.8313 2720
-1812.731259 612.4087936 2745
-1805.633258 612.4087936 2745
-1806.397707 615.0859905 2757
-1823.415554 623.3406809 2794
-1816.190849 623.3406809 2794
-1833.56912 631.8184712 2832
-1843.012539 637.6190645 2858
-1835.622344 637.6190645 2858
-1845.50376 643.6427575 2885
-1846.326095 646.5430542 2898
-1838.832468 646.5430542 2898
-1840.185888 649.6664506 2912
-1832.65606 649.6664506 2912
-1825.126231 649.6664506 2912
-1817.596403 649.6664506 2912
-1810.066575 649.6664506 2912
-1802.536747 649.6664506 2912
-1795.006918 649.6664506 2912
-1787.47709 649.6664506 2912
-1779.947262 649.6664506 2912
-1772.417433 649.6664506 2912
-1764.887605 649.6664506 2912
-1748.908941 646.5430542 2898
-1741.415314 646.5430542 2898
-1726.143571 643.6427575 2885
-1718.683559 643.6427575 2885
-1711.223547 643.6427575 2885
-1703.763535 643.6427575 2885
-1696.303523 643.6427575 2885
-1681.233471 640.7424609 2872
-1673.807075 640.7424609 2872
-1666.380678 640.7424609 2872
-1650.867457 637.6190645 2858
-1643.477261 637.6190645 2858
-1636.087066 637.6190645 2858
-1628.69687 637.6190645 2858
-1621.306675 637.6190645 2858
-1613.91648 637.6190645 2858
-1606.526284 637.6190645 2858
-1606.969505 640.7424609 2872
-1599.543109 640.7424609 2872
-1592.116712 640.7424609 2872
-1584.690316 640.7424609 2872
-1577.263919 640.7424609 2872
-1569.837523 640.7424609 2872
-1562.411126 640.7424609 2872
-1562.023309 643.6427575 2885
-1561.568262 646.5430542 2898
-1554.074635 646.5430542 2898
-1546.581008 646.5430542 2898
-1539.087381 646.5430542 2898
-1531.593753 646.5430542 2898
-1524.100126 646.5430542 2898
-1516.606499 646.5430542 2898
-1509.112872 646.5430542 2898
-1501.619245 646.5430542 2898
-1487.423191 643.6427575 2885
-1473.294367 640.7424609 2872
-1465.867971 640.7424609 2872
-1451.332179 637.6190645 2858
-1437.374018 634.7187678 2845
-1430.017438 634.7187678 2845
-1409.659388 628.9181745 2819
-1402.370038 628.9181745 2819
-1382.708565 623.3406809 2794
-1369.083971 620.4403843 2781
-1361.892882 620.4403843 2781
-1348.856261 617.7631874 2769
-1330.067198 612.4087936 2745
-1322.969198 612.4087936 2745
-1309.639384 609.5084969 2732
-1302.574998 609.5084969 2732
-1295.510613 609.5084969 2732
-526.3163321 271.2892871 1216
-523.1720082 271.2892871 1216
-519.1723756 270.8430876 1214
-1948.978315 622.2150209 2757
-1924.24093 616.5728825 2732
-1917.176545 616.5728825 2732
-1894.03142 611.3821152 2709
-1878.667586 608.6738888 2697
-1871.693703 608.6738888 2697
-1864.719821 608.6738888 2697
-1857.745938 608.6738888 2697
-1842.537251 605.9656623 2685
-1828.074272 603.4831214 2674
-1821.159862 603.4831214 2674
-1814.245453 603.4831214 2674
-1814.765838 605.9656623 2685
-1807.822985 605.9656623 2685
-1800.880131 605.9656623 2685
-1817.321935 613.8646561 2720
-1818.275147 616.5728825 2732
-1811.210761 616.5728825 2732
-1820.655768 622.2150209 2757
-1813.526737 622.2150209 2757
-1814.260156 624.9232473 2769
-1831.899592 633.4992976 2807
-1824.641272 633.4992976 2807
-1841.985927 642.075348 2845
-1860.423784 651.1027694 2885
-1852.963772 651.1027694 2885
-1862.775373 657.1962789 2912
-1864.164994 660.3558763 2926
-1856.598965 660.3558763 2926
-1849.032935 660.3558763 2926
-1841.466906 660.3558763 2926
-1833.900877 660.3558763 2926
-1835.073292 663.5154738 2940
-1827.471061 663.5154738 2940
-1811.202789 660.3558763 2926
-1803.636759 660.3558763 2926
-1796.07073 660.3558763 2926
-1788.504701 660.3558763 2926
-1780.938671 660.3558763 2926
-1773.372642 660.3558763 2926
-1757.357777 657.1962789 2912
-1749.827949 657.1962789 2912
-1742.29812 657.1962789 2912
-1734.768292 657.1962789 2912
-1718.934433 654.0366814 2898
-1711.440806 654.0366814 2898
-1703.947178 654.0366814 2898
-1688.843511 651.1027694 2885
-1681.383499 651.1027694 2885
-1673.923487 651.1027694 2885
-1658.954281 648.1688574 2872
-1651.527885 648.1688574 2872
-1644.101488 648.1688574 2872
-1636.675092 648.1688574 2872
-1629.248695 648.1688574 2872
-1621.822299 648.1688574 2872
-1614.395902 648.1688574 2872
-1606.969505 648.1688574 2872
-1599.543109 648.1688574 2872
-1592.116712 648.1688574 2872
-1584.690316 648.1688574 2872
-1577.263919 648.1688574 2872
-1576.943333 651.1027694 2885
-1569.483321 651.1027694 2885
-1562.023309 651.1027694 2885
-1561.568262 654.0366814 2898
-1554.074635 654.0366814 2898
-1546.581008 654.0366814 2898
-1539.087381 654.0366814 2898
-1531.593753 654.0366814 2898
-1524.100126 654.0366814 2898
-1516.606499 654.0366814 2898
-1509.112872 654.0366814 2898
-1501.619245 654.0366814 2898
-1487.423191 651.1027694 2885
-1479.963179 651.1027694 2885
-1472.503167 651.1027694 2885
-1451.332179 645.0092599 2858
-1437.374018 642.075348 2845
-1430.017438 642.075348 2845
-1409.659388 636.2075241 2819
-1402.370038 636.2075241 2819
-1389.142069 633.4992976 2807
-1381.883749 633.4992976 2807
-1374.625429 633.4992976 2807
-1348.856261 624.9232473 2769
-1335.8817 622.2150209 2757
-1328.752669 622.2150209 2757
-1321.623639 622.2150209 2757
-526.3163321 274.4336109 1216
-523.1720082 274.4336109 1216
-517.8894125 273.3051833 1211
-1940.495275 626.6047953 2745
-1915.78892 620.8980121 2720
-1908.755564 620.8980121 2720
-1894.03142 618.3870275 2709
-1878.667586 615.6477716 2697
-1871.693703 615.6477716 2697
-1864.719821 615.6477716 2697
-1857.745938 615.6477716 2697
-1842.537251 612.9085157 2685
-1828.074272 610.3975311 2674
-1821.159862 610.3975311 2674
-1814.245453 610.3975311 2674
-1814.765838 612.9085157 2685
-1815.902641 615.6477716 2697
-1808.928758 615.6477716 2697
-1817.321935 620.8980121 2720
-1826.927261 626.6047953 2745
-1819.82926 626.6047953 2745
-1828.580276 632.0833072 2769
-1821.420216 632.0833072 2769
-1830.640258 637.7900904 2794
-1839.731011 643.4968736 2819
-1832.441662 643.4968736 2819
-1850.402735 652.3994554 2858
-1860.423784 658.5627813 2885
-1852.963772 658.5627813 2885
-1862.775373 664.7261071 2912
-1864.164994 667.9219057 2926
-1856.598965 667.9219057 2926
-1849.032935 667.9219057 2926
-1850.277753 671.1177043 2940
-1842.675522 671.1177043 2940
-1835.073292 671.1177043 2940
-1827.471061 671.1177043 2940
-1811.202789 667.9219057 2926
-1803.636759 667.9219057 2926
-1796.07073 667.9219057 2926
-1788.504701 667.9219057 2926
-1780.938671 667.9219057 2926
-1773.372642 667.9219057 2926
-1765.806612 667.9219057 2926
-1758.240583 667.9219057 2926
-1750.674554 667.9219057 2926
-1743.108524 667.9219057 2926
-1727.238464 664.7261071 2912
-1719.708636 664.7261071 2912
-1712.178807 664.7261071 2912
-1696.453551 661.5303085 2898
-1688.959924 661.5303085 2898
-1681.466297 661.5303085 2898
-1673.97267 661.5303085 2898
-1666.479043 661.5303085 2898
-1651.543452 658.5627813 2885
-1644.08344 658.5627813 2885
-1636.623428 658.5627813 2885
-1629.163416 658.5627813 2885
-1621.703404 658.5627813 2885
-1614.243392 658.5627813 2885
-1606.783381 658.5627813 2885
-1599.323369 658.5627813 2885
-1591.863357 658.5627813 2885
-1584.403345 658.5627813 2885
-1576.943333 658.5627813 2885
-1569.483321 658.5627813 2885
-1562.023309 658.5627813 2885
-1561.568262 661.5303085 2898
-1554.074635 661.5303085 2898
-1546.581008 661.5303085 2898
-1546.522585 664.7261071 2912
-1538.992757 664.7261071 2912
-1531.462929 664.7261071 2912
-1523.933101 664.7261071 2912
-1516.403272 664.7261071 2912
-1508.873444 664.7261071 2912
-1501.343616 664.7261071 2912
-1486.63199 661.5303085 2898
-1479.138363 661.5303085 2898
-1465.043155 658.5627813 2885
-1451.015178 655.595254 2872
-1443.588781 655.595254 2872
-1422.660858 649.4319281 2845
-1415.304278 649.4319281 2845
-1401.514193 646.4644009 2832
-1387.791339 643.4968736 2819
-1380.50199 643.4968736 2819
-1361.034451 637.7900904 2794
-1347.510703 634.8225632 2781
-1340.319613 634.8225632 2781
-1333.128524 634.8225632 2781
-517.8894125 276.4365782 1211
-1931.305316 630.7016537 2732
-1908.041245 625.3919399 2709
-1901.036332 625.3919399 2709
-1885.641469 622.6216545 2697
-1878.667586 622.6216545 2697
-1880.021595 625.3919399 2709
-1864.719821 622.6216545 2697
-1857.745938 622.6216545 2697
-1842.537251 619.851369 2685
-1835.594398 619.851369 2685
-1828.651545 619.851369 2685
-1821.708691 619.851369 2685
-1814.765838 619.851369 2685
-1815.902641 622.6216545 2697
-1808.928758 622.6216545 2697
-1817.321935 627.9313682 2720
-1826.927261 633.7027962 2745
-1819.82926 633.7027962 2745
-1828.580276 639.2433671 2769
-1821.420216 639.2433671 2769
-1830.640258 645.0147952 2794
-1839.731011 650.7862232 2819
-1832.441662 650.7862232 2819
-1850.402735 659.7896509 2858
-1860.423784 666.0227931 2885
-1852.963772 666.0227931 2885
-1862.775373 672.2559354 2912
-1855.245544 672.2559354 2912
-1847.715716 672.2559354 2912
-1849.032935 675.4879351 2926
-1841.466906 675.4879351 2926
-1833.900877 675.4879351 2926
-1826.334847 675.4879351 2926
-1818.768818 675.4879351 2926
-1811.202789 675.4879351 2926
-1803.636759 675.4879351 2926
-1796.07073 675.4879351 2926
-1788.504701 675.4879351 2926
-1780.938671 675.4879351 2926
-1773.372642 675.4879351 2926
-1765.806612 675.4879351 2926
-1758.240583 675.4879351 2926
-1750.674554 675.4879351 2926
-1743.108524 675.4879351 2926
-1727.238464 672.2559354 2912
-1719.708636 672.2559354 2912
-1712.178807 672.2559354 2912
-1696.453551 669.0239357 2898
-1688.959924 669.0239357 2898
-1681.466297 669.0239357 2898
-1673.97267 669.0239357 2898
-1666.479043 669.0239357 2898
-1651.543452 666.0227931 2885
-1644.08344 666.0227931 2885
-1636.623428 666.0227931 2885
-1629.163416 666.0227931 2885
-1621.703404 666.0227931 2885
-1614.243392 666.0227931 2885
-1606.783381 666.0227931 2885
-1599.323369 666.0227931 2885
-1591.863357 666.0227931 2885
-1584.403345 666.0227931 2885
-1576.943333 666.0227931 2885
-1569.483321 666.0227931 2885
-1562.023309 666.0227931 2885
-1561.568262 669.0239357 2898
-1554.074635 669.0239357 2898
-1546.581008 669.0239357 2898
-1546.522585 672.2559354 2912
-1538.992757 672.2559354 2912
-1531.462929 672.2559354 2912
-1523.933101 672.2559354 2912
-1516.403272 672.2559354 2912
-1508.873444 672.2559354 2912
-1501.343616 672.2559354 2912
-1486.63199 669.0239357 2898
-1479.138363 669.0239357 2898
-1465.043155 666.0227931 2885
-1451.015178 663.0216506 2872
-1443.588781 663.0216506 2872
-1422.660858 656.7885083 2845
-1415.304278 656.7885083 2845
-1401.514193 653.7873657 2832
-1387.791339 650.7862232 2819
-1380.50199 650.7862232 2819
-1361.034451 645.0147952 2794
-1347.510703 642.0136526 2781
-1340.319613 642.0136526 2781
-1333.128524 642.0136526 2781
-517.8894125 279.5679731 1211
-1931.305316 637.7660393 2732
-1908.041245 632.3968523 2709
-1901.036332 632.3968523 2709
-1885.641469 629.5955373 2697
-1878.667586 629.5955373 2697
-1880.021595 632.3968523 2709
-1864.719821 629.5955373 2697
-1857.745938 629.5955373 2697
-1850.772055 629.5955373 2697
-1835.594398 626.7942223 2685
-1828.651545 626.7942223 2685
-1821.708691 626.7942223 2685
-1822.876523 629.5955373 2697
-1823.982296 632.3968523 2709
-1816.977384 632.3968523 2709
-1825.339532 637.7660393 2732
-1834.913828 643.6021121 2757
-1827.784798 643.6021121 2757
-1836.504784 649.204742 2781
-1829.313695 649.204742 2781
-1839.157912 655.2742578 2807
-1848.215049 661.1103306 2832
-1840.892085 661.1103306 2832
-1850.402735 667.1798463 2858
-1860.423784 673.482805 2885
-1852.963772 673.482805 2885
-1862.775373 679.7857637 2912
-1855.245544 679.7857637 2912
-1847.715716 679.7857637 2912
-1849.032935 683.0539645 2926
-1841.466906 683.0539645 2926
-1833.900877 683.0539645 2926
-1826.334847 683.0539645 2926
-1818.768818 683.0539645 2926
-1811.202789 683.0539645 2926
-1803.636759 683.0539645 2926
-1796.07073 683.0539645 2926
-1788.504701 683.0539645 2926
-1789.459909 686.3221652 2940
-1781.857678 686.3221652 2940
-1774.255448 686.3221652 2940
-1766.653217 686.3221652 2940
-1750.674554 683.0539645 2926
-1743.108524 683.0539645 2926
-1735.542495 683.0539645 2926
-1719.708636 679.7857637 2912
-1712.178807 679.7857637 2912
-1704.648979 679.7857637 2912
-1697.119151 679.7857637 2912
-1689.589322 679.7857637 2912
-1673.97267 676.5175629 2898
-1666.479043 676.5175629 2898
-1658.985415 676.5175629 2898
-1644.08344 673.482805 2885
-1636.623428 673.482805 2885
-1629.163416 673.482805 2885
-1621.703404 673.482805 2885
-1614.243392 673.482805 2885
-1606.783381 673.482805 2885
-1599.323369 673.482805 2885
-1591.863357 673.482805 2885
-1584.403345 673.482805 2885
-1576.943333 673.482805 2885
-1569.483321 673.482805 2885
-1562.023309 673.482805 2885
-1561.568262 676.5175629 2898
-1554.074635 676.5175629 2898
-1546.581008 676.5175629 2898
-1546.522585 679.7857637 2912
-1538.992757 679.7857637 2912
-1531.462929 679.7857637 2912
-1523.933101 679.7857637 2912
-1516.403272 679.7857637 2912
-1508.873444 679.7857637 2912
-1501.343616 679.7857637 2912
-1486.63199 676.5175629 2898
-1479.138363 676.5175629 2898
-1471.644736 676.5175629 2898
-1457.583143 673.482805 2885
-1450.123131 673.482805 2885
-1436.162384 670.4480471 2872
-1428.735988 670.4480471 2872
-1414.381202 667.1798463 2858
-1400.591117 664.1450885 2845
-1393.234537 664.1450885 2845
-1373.21264 658.0755727 2819
-1360.108789 655.2742578 2807
-1352.850469 655.2742578 2807
-1345.592149 655.2742578 2807
-517.8894125 282.6993681 1211
-514.7580176 282.6993681 1211
-1922.822277 641.9980804 2720
-1908.041245 639.4017646 2709
-1901.036332 639.4017646 2709
-1885.641469 636.5694201 2697
-1878.667586 636.5694201 2697
-1880.021595 639.4017646 2709
-1864.719821 636.5694201 2697
-1857.745938 636.5694201 2697
-1842.537251 633.7370757 2685
-1835.594398 633.7370757 2685
-1828.651545 633.7370757 2685
-1821.708691 633.7370757 2685
-1822.876523 636.5694201 2697
-1823.982296 639.4017646 2709
-1816.977384 639.4017646 2709
-1825.339532 644.8304249 2732
-1834.913828 650.7311425 2757
-1827.784798 650.7311425 2757
-1836.504784 656.3958315 2781
-1829.313695 656.3958315 2781
-1839.157912 662.5325778 2807
-1848.215049 668.4332955 2832
-1840.892085 668.4332955 2832
-1850.402735 674.5700418 2858
-1860.423784 680.9428169 2885
-1852.963772 680.9428169 2885
-1862.775373 687.3155919 2912
-1855.245544 687.3155919 2912
-1847.715716 687.3155919 2912
-1840.185888 687.3155919 2912
-1832.65606 687.3155919 2912
-1825.126231 687.3155919 2912
-1826.334847 690.6199938 2926
-1818.768818 690.6199938 2926
-1811.202789 690.6199938 2926
-1803.636759 690.6199938 2926
-1796.07073 690.6199938 2926
-1788.504701 690.6199938 2926
-1789.459909 693.9243957 2940
-1781.857678 693.9243957 2940
-1774.255448 693.9243957 2940
-1766.653217 693.9243957 2940
-1750.674554 690.6199938 2926
-1743.108524 690.6199938 2926
-1735.542495 690.6199938 2926
-1719.708636 687.3155919 2912
-1712.178807 687.3155919 2912
-1704.648979 687.3155919 2912
-1697.119151 687.3155919 2912
-1689.589322 687.3155919 2912
-1673.97267 684.0111901 2898
-1666.479043 684.0111901 2898
-1651.543452 680.9428169 2885
-1644.08344 680.9428169 2885
-1636.623428 680.9428169 2885
-1629.163416 680.9428169 2885
-1621.703404 680.9428169 2885
-1614.243392 680.9428169 2885
-1606.783381 680.9428169 2885
-1599.323369 680.9428169 2885
-1591.863357 680.9428169 2885
-1584.403345 680.9428169 2885
-1576.943333 680.9428169 2885
-1569.483321 680.9428169 2885
-1562.023309 680.9428169 2885
-1561.568262 684.0111901 2898
-1554.074635 684.0111901 2898
-1546.581008 684.0111901 2898
-1546.522585 687.3155919 2912
-1538.992757 687.3155919 2912
-1531.462929 687.3155919 2912
-1523.933101 687.3155919 2912
-1516.403272 687.3155919 2912
-1516.127643 690.6199938 2926
-1508.561614 690.6199938 2926
-1493.813787 687.3155919 2912
-1486.283959 687.3155919 2912
-1478.754131 687.3155919 2912
-1464.151109 684.0111901 2898
-1456.657482 684.0111901 2898
-1442.663119 680.9428169 2885
-1435.203108 680.9428169 2885
-1421.309591 677.8744437 2872
-1413.883195 677.8744437 2872
-1406.456798 677.8744437 2872
-1392.210616 674.5700418 2858
-1378.521377 671.5016686 2845
-1371.164797 671.5016686 2845
-1363.808217 671.5016686 2845
-1922.822277 649.0314365 2720
-1908.041245 646.406677 2709
-1901.036332 646.406677 2709
-1885.641469 643.543303 2697
-1878.667586 643.543303 2697
-1871.693703 643.543303 2697
-1864.719821 643.543303 2697
-1857.745938 643.543303 2697
-1842.537251 640.679929 2685
-1835.594398 640.679929 2685
-1828.651545 640.679929 2685
-1821.708691 640.679929 2685
-1822.876523 643.543303 2697
-1831.388648 649.0314365 2720
-1824.355291 649.0314365 2720
-1834.025262 654.9967989 2745
-1842.900396 660.7235469 2769
-1835.740336 660.7235469 2769
-1845.089668 666.6889094 2794
-1837.864963 666.6889094 2794
-1839.157912 669.7908978 2807
-1848.215049 675.7562603 2832
-1840.892085 675.7562603 2832
-1850.402735 681.9602373 2858
-1860.423784 688.4028287 2885
-1852.963772 688.4028287 2885
-1853.819722 691.5048172 2898
-1855.245544 694.8454202 2912
-1847.715716 694.8454202 2912
-1840.185888 694.8454202 2912
-1832.65606 694.8454202 2912
-1825.126231 694.8454202 2912
-1817.596403 694.8454202 2912
-1810.066575 694.8454202 2912
-1811.202789 698.1860232 2926
-1803.636759 698.1860232 2926
-1796.07073 698.1860232 2926
-1788.504701 698.1860232 2926
-1780.938671 698.1860232 2926
-1773.372642 698.1860232 2926
-1765.806612 698.1860232 2926
